# .PCD v0.7 - Point Cloud Data file format
VERSION 0.7
FIELDS x y z intensity
SIZE 4 4 4 4
TYPE F F F F
COUNT 1 1 1 1
WIDTH 1461
HEIGHT 1
VIEWPOINT 0 0 0 1 0 0 0
POINTS 1461
DATA ascii
-8.9296417 7.1335812 -1.2460543 135
-8.9027004 7.2019877 -1.2485105 166
-6.3137174 5.1721497 -0.8789742 23
-8.9283848 7.4058571 -1.2652569 15
-0 0 -0 3
-8.8602991 7.5348206 -1.2687178 23
-0 0 -0 4
-0 0 -0 5
-0 0 -0 3
-5.4559426 4.8756647 -0.78407818 12
-5.5091982 4.9843836 -0.7966938 18
-5.5430012 5.0771575 -0.80651832 38
-5.518302 5.1171541 -0.80752307 28
-5.5194049 5.1815228 -0.81254703 36
-5.500474 5.2276134 -0.81455654 30
-5.4833336 5.2757335 -0.81690103 28
-8.884387 8.6532717 -1.3553523 80
-8.8849049 8.7606478 -1.363837 278
-8.8724813 8.8564186 -1.3704239 306
-8.8696995 8.9629612 -1.3786855 283
-8.8395452 9.0427971 -1.3827046 256
-8.8584461 9.1740704 -1.394762 182
-8.8109055 9.2375994 -1.3962133 10
-5.2887344 5.6136537 -0.82851183 7
-5.2548676 5.6467261 -0.82862347 16
-9.4975557 10.33171 -1.538669 127
-9.4814148 10.442026 -1.5465956 148
-9.5206747 10.615412 -1.5640118 137
-9.5061016 10.730905 -1.5726084 174
-9.4773798 10.831659 -1.5789719 150
-9.5049601 10.998628 -1.59516 128
-9.5224571 11.156513 -1.6098969 159
-9.5153122 11.287671 -1.6206145 133
-9.4935617 11.403121 -1.6289877 132
-9.511775 11.56862 -1.6446177 138
-9.5295649 11.73631 -1.6604708 138
-9.5195408 11.872088 -1.671635 140
-9.5193119 12.022207 -1.6848089 101
-9.5035172 12.15476 -1.6954149 110
-9.4925251 12.295435 -1.7071373 118
-9.515708 12.483057 -1.7254467 117
-9.5058661 12.630136 -1.7379507 150
-9.5123568 12.801488 -1.7538038 113
-9.5329704 12.995026 -1.7726715 125
-9.5107613 13.132954 -1.7837241 111
-9.502243 13.292114 -1.7976793 108
-9.5259314 13.499565 -1.8182216 108
-9.5178938 13.665399 -1.8329583 101
-9.4963541 13.814441 -1.8453506 92
-9.5163021 14.02705 -1.8663393 84
-9.5129852 14.20904 -1.8830857 105
-9.5275106 14.421361 -1.9038513 96
-9.4665213 14.522005 -1.9095449 128
-9.3578844 14.549729 -1.9055258 142
-9.2322273 14.549817 -1.8979342 129
-9.1169405 14.564918 -1.8924637 131
-9.0237455 14.614665 -1.8916821 119
-8.9969645 14.773304 -1.9053025 106
-8.9332676 14.87338 -1.9112196 57
-8.6980057 14.68509 -1.8795131 48
-8.6117449 14.745049 -1.8804064 61
-8.6083918 14.949176 -1.9000554 35
-8.6308193 15.203071 -1.9260681 169
-8.5839624 15.338991 -1.9367857 345
-8.6000795 15.591506 -1.9624635 23
-8.576395 15.776689 -1.9794331 12
-8.5812616 16.0191 -2.0036595 46
-8.6168728 16.325434 -2.0359242 20
-8.6031933 16.544634 -2.0570245 21
-8.580349 16.751005 -2.0764503 15
-8.588418 17.023369 -2.1041377 16
-0 0 -0 8
-9.1824188 18.769951 -2.3095596 94
-9.0532761 18.797291 -2.3059871 111
-8.9833202 18.948565 -2.3179328 48
-8.433651 18.074879 -2.2028296 55
-8.2960482 18.068487 -2.1956844 98
-8.6420183 19.130632 -2.320389 23
-8.5926733 19.336771 -2.3392565 20
-8.5590315 19.583994 -2.363148 17
-8.4920692 19.760309 -2.3783314 7
-2.8772805 6.81075 -0.79267466 157
-2.8331494 6.8227701 -0.79200482 290
-2.7871017 6.8299046 -0.79077673 101
-2.7495799 6.8579454 -0.79211646 8
-2.7107265 6.883009 -0.79312122 7
-0 0 -0 3
-0 0 -0 5
-0 0 -0 7
-0 0 -0 3
-0 0 -0 6
-0 0 -0 5
-0 0 -0 3
-0 0 -0 3
-0 0 -0 4
-0 0 -0 5
-2.1948853 6.9071522 -0.77626324 6
-0 0 -0 4
-0 0 -0 5
-0 0 -0 5
-0 0 -0 3
-0 0 -0 5
-0 0 -0 3
-0 0 -0 5
-0 0 -0 4
-2.0968058 8.1281891 -0.90509856 5
-0 0 -0 4
-0 0 -0 6
-0 0 -0 5
-0 0 -0 3
-0 0 -0 4
-2.4121556 11.011067 -1.2284149 13
-2.3439274 11.022744 -1.2280799 9
-0 0 -0 5
-0 0 -0 4
-0 0 -0 8
-0 0 -0 4
-0 0 -0 3
-0 0 -0 5
-0 0 -0 4
-0 0 -0 4
-0 0 -0 6
-1.0292569 6.8968487 -0.74544996 8
-0 0 -0 10
-0.93848467 6.8646536 -0.740426 93
-0.89557457 6.8643703 -0.73975617 159
-0.8552773 6.8845286 -0.74143082 169
-0.81453323 6.9024768 -0.74288213 162
-0.77238601 6.9093199 -0.74310541 130
-0.72987229 6.9129405 -0.74299377 155
-0.68714654 6.9143224 -0.74265885 120
-0.64996713 6.9748073 -0.74902248 73
-0.61603582 7.0806346 -0.76052165 5
-0 0 -0 4
-0 0 -0 6
-0.49287102 7.1968565 -0.77246737 6
-0.45111549 7.2384262 -0.77682143 5
-0 0 -0 5
-0.36881426 7.3744278 -0.79155821 8
-0.32543352 7.4192419 -0.79635888 17
-0.27922863 7.4032245 -0.79434931 29
-0.23662537 7.4941912 -0.80439711 9
-0.2748763 10.80063 -1.1758313 41
-0.20884961 10.815029 -1.1772827 108
-0.14256467 10.822069 -1.1779525 147
-0.076130897 10.818766 -1.177506 202
-0 0 -0 799
0 0 -0 1156
0 0 -0 75
0 0 -0 91
0 0 -0 111
0.32204074 10.811256 -1.177171 1102
0.38794357 10.797159 -1.1758313 926
0.45356029 10.779683 -1.1741567 137
0.51988596 10.780667 -1.1746032 366
0.58710349 10.79712 -1.176836 449
0.65214223 10.773476 -1.1746032 182
0.71836692 10.771255 -1.1748265 171
0.78790897 10.814218 -1.1801853 61
0.85808343 10.857722 -1.1856558 35
0.9257853 10.865125 -1.1871072 44
0.98782432 10.808769 -1.1814134 160
1.0534518 10.795581 -1.1806319 156
1.1196724 10.788914 -1.1806319 182
1.1856337 10.779865 -1.1804086 203
1.251182 10.767451 -1.1798505 223
1.3128803 10.724062 -1.1758313 53
2.0373552 15.837134 -1.7559251 18
2.1420622 15.880471 -1.7622887 42
2.2415454 15.881788 -1.7639633 46
2.3354747 15.844141 -1.7612839 30
2.4327996 15.830494 -1.7613956 9
2.5342822 15.842745 -1.7645215 11
0 0 -0 4
0 0 -0 3
3.3614299 18.789707 -2.106482 9
3.4833543 18.80488 -2.1106129 14
3.588577 18.73045 -2.1045842 15
3.6930177 18.655437 -2.0985556 16
3.8042328 18.616848 -2.0967693 14
3.9081469 18.544535 -2.0911872 18
4.0060453 18.447372 -2.082814 13
3.236696 14.475332 -1.6284295 16
3.3241174 14.449389 -1.6277596 8
3.4028802 14.387136 -1.622959 7
3.4467478 14.183478 -1.6018586 12
3.4112678 13.671288 -1.5450326 93
3.4798079 13.590412 -1.5381109 163
3.558589 13.551503 -1.5361012 155
3.6217861 13.455524 -1.5275048 212
3.6968834 13.406224 -1.5243788 245
3.7779927 13.379462 -1.5239322 236
3.868017 13.383716 -1.5271698 152
3.9647155 13.409285 -1.5329752 16
4.0532455 13.405632 -1.5354314 15
4.1427598 13.404245 -1.5382224 19
4.2345037 13.408897 -1.541795 11
4.3334765 13.43468 -1.5479354 29
4.4242215 13.433323 -1.5509497 24
4.5182786 13.440776 -1.5550804 23
4.6132379 13.449459 -1.5594345 26
4.7088017 13.45842 -1.5639002 17
4.8103247 13.482624 -1.5702637 180
4.9096045 13.498616 -1.5757343 212
5.0064983 13.506441 -1.5803117 236
5.1029696 13.511724 -1.5846657 203
5.225739 13.584039 -1.5971696 122
5.3285637 13.601684 -1.6031983 84
5.4472623 13.657345 -1.6139159 41
5.5417991 13.650366 -1.6171536 39
5.6322818 13.632638 -1.6191632 24
5.7192893 13.606067 -1.620168 23
5.8151689 13.599957 -1.6237406 30
6.645082 15.280949 -1.8340747 25
6.7359056 15.233525 -1.8332932 18
6.8109159 15.15112 -1.8282694 18
6.8979716 15.09639 -1.8267063 22
6.9586644 14.98528 -1.8182216 25
7.0271592 14.89287 -1.8120812 31
7.0664325 14.741041 -1.7985724 27
7.1484833 14.680429 -1.7964512 32
7.2155194 14.58997 -1.7906458 27
7.2634311 14.462832 -1.7802631 19
6.9963269 13.720371 -1.6922889 15
7.0707884 13.658651 -1.6899444 25
7.1572366 13.620287 -1.6906143 23
7.2715378 13.633986 -1.6979827 20
7.4156013 13.700979 -1.7122729 12
7.6066804 13.850334 -1.7372808 19
7.6910377 13.802531 -1.7371691 25
7.7838964 13.769787 -1.7390671 26
7.8099122 13.62004 -1.7258933 21
7.8763499 13.542656 -1.7220974 21
7.9062891 13.404197 -1.710375 25
7.9761448 13.334964 -1.7076956 26
7.9908257 13.175311 -1.6931821 16
8.097023 13.167512 -1.6986525 17
8.1003866 12.993615 -1.6822411 21
8.1709366 12.929386 -1.6803432 19
8.2163477 12.826288 -1.6733097 32
8.2456503 12.699784 -1.6631503 30
8.2955618 12.606613 -1.6574565 28
8.3810282 12.567877 -1.6591312 27
8.4073544 12.441287 -1.6489717 21
8.4897099 12.398486 -1.6501998 19
8.4749947 12.215521 -1.632337 20
8.5377874 12.146215 -1.6299925 40
8.578145 12.04584 -1.6234056 25
8.6321287 11.965577 -1.6196097 41
8.6590672 11.849 -1.61079 35
8.6884489 11.737338 -1.60264 28
8.712615 11.620198 -1.5937088 25
8.7723322 11.551482 -1.5915875 29
8.8066959 11.450175 -1.5848889 42
8.8670168 11.383379 -1.5831027 22
8.889307 11.268681 -1.5745062 27
8.9278927 11.175879 -1.5690358 18
8.9587994 11.074531 -1.5623372 22
8.9812441 10.964001 -1.554299 31
8.9861765 10.833728 -1.543358 25
9.0224447 10.74262 -1.5381109 29
9.0849714 10.683271 -1.5375526 18
9.1153393 10.586659 -1.5315239 26
9.1644535 10.51255 -1.5288445 33
9.1682882 10.387574 -1.5185734 24
9.2186098 10.316303 -1.5163405 29
9.2684031 10.244805 -1.5141077 15
9.3109541 10.165757 -1.5107584 23
9.3907213 10.127381 -1.5136611 26
9.3901138 10.002913 -1.5033901 27
9.4191399 9.9112501 -1.4981428 35
9.4804659 9.8539848 -1.4982544 25
9.5060835 9.7600327 -1.4926723 30
9.5762558 9.7121353 -1.494347 27
9.5893345 9.6067734 -1.4869787 29
9.5838242 9.4841423 -1.4768192 29
9.6532068 9.4362736 -1.4786054 31
9.6229982 9.2919569 -1.4648734 25
9.7014036 9.253314 -1.4682226 29
9.7146025 9.1527243 -1.4615241 27
9.7211132 9.0469065 -1.4539324 28
9.750104 8.9628763 -1.4499133 21
9.7578316 8.8601265 -1.4427682 22
9.8208904 8.8080492 -1.4441079 17
9.864337 8.7383986 -1.4425449 25
9.8975763 8.6600389 -1.4395306 15
9.9197006 8.572504 -1.4349532 22
9.8730993 8.426959 -1.4203281 26
9.902586 8.3476448 -1.4170904 32
9.9276543 8.2651081 -1.4132947 27
10.003511 8.224865 -1.4169788 19
9.9604454 8.087533 -1.40347 14
10.099038 8.0977573 -1.416309 27
10.080755 7.981967 -1.4065961 21
10.10136 7.8979263 -1.4025769 19
10.123673 7.8157558 -1.3988928 22
10.105844 7.703486 -1.3896264 25
10.130691 7.6245999 -1.3865005 26
10.191641 7.5729647 -1.38851 20
10.19545 7.4791327 -1.3825929 22
10.229881 7.4082732 -1.38103 23
10.254934 7.3309159 -1.3782389 24
10.28592 7.2581143 -1.376341 23
10.261765 7.1471543 -1.366963 16
10.262842 7.054781 -1.3611577 24
10.30347 6.9900026 -1.3608227 26
10.315613 6.9061937 -1.356692 23
10.445682 6.9008346 -1.368526 19
10.417068 6.790482 -1.3590364 24
10.451015 6.7215981 -1.3580316 18
10.521429 6.6759806 -1.3619391 28
10.540294 6.5975876 -1.3590364 15
10.552674 6.5155597 -1.3553523 21
10.477027 6.3803883 -1.3401688 9
10.650577 6.3968287 -1.3578084 20
10.629776 6.2959061 -1.3499933 20
10.675072 6.2345743 -1.3508866 18
10.642509 6.1282902 -1.3417319 21
10.67732 6.0614018 -1.3413969 20
10.682225 5.9778161 -1.3372662 20
10.703911 5.9039989 -1.3353683 24
10.747793 5.8424816 -1.336373 19
10.703726 5.7337208 -1.3262136 18
10.734312 5.6656165 -1.3256553 29
10.702749 5.565259 -1.3172822 30
10.787993 5.5257611 -1.3237574 17
10.779997 5.4384246 -1.3185103 38
10.839862 5.3854427 -1.3218595 21
10.836103 5.3009238 -1.3172822 29
10.842462 5.2218294 -1.3140446 21
10.904828 5.1696777 -1.3178403 27
10.887714 5.0799785 -1.3118117 23
10.884362 4.9973197 -1.3075693 28
10.904859 4.92594 -1.3063412 27
10.951224 4.8662004 -1.3083508 25
10.947186 4.7841878 -1.3042201 17
10.961726 4.710649 -1.3024337 19
11.01514 4.6537433 -1.3054481 18
10.988422 4.563199 -1.2987496 21
11.027255 4.5001955 -1.3000892 24
11.052815 4.4317093 -1.299866 18
11.003983 4.3339429 -1.2907113 23
11.088758 4.288929 -1.2977448 21
11.030326 4.1887021 -1.2875853 23
11.098653 4.1369095 -1.2927209 19
11.071565 4.0496135 -1.2864689 26
11.052242 3.9658275 -1.2812217 26
11.105428 3.908165 -1.2846826 24
11.131077 3.8405979 -1.2849059 24
11.146902 3.7696795 -1.2840128 23
11.192462 3.708715 -1.2866921 36
11.175309 3.6270835 -1.2820032 22
11.202089 3.5599499 -1.2825614 20
11.190511 3.4808164 -1.2786539 27
11.197397 3.4077468 -1.2769793 25
11.171427 3.325084 -1.2715088 22
11.229785 3.2675819 -1.2759745 25
11.267785 3.2037802 -1.2780957 18
11.223078 3.1167638 -1.2706157 26
11.246786 3.0491419 -1.2711738 21
8.5494032 2.2615263 -0.95556086 11
8.5650434 2.2095222 -0.95578414 18
8.5861502 2.1588655 -0.95667732 12
11.319194 2.77245 -1.2712855 20
11.308927 2.69649 -1.2681595 22
8.6360493 2.0031519 -0.95801699 9
8.6462393 1.949687 -0.95779371 7
11.411004 2.4997835 -1.2744116 14
11.366836 2.4171093 -1.2676014 26
11.320137 2.3346703 -1.2605679 31
11.357636 2.2698421 -1.2632473 34
11.386961 2.203131 -1.2650336 35
11.378776 2.1291986 -1.2625774 31
11.350554 2.0519135 -1.2578884 38
11.440269 1.9957232 -1.2667081 33
11.392519 1.9154366 -1.2598979 29
11.417791 1.8477204 -1.261461 39
11.367052 1.7680033 -1.2544276 35
11.471058 1.712163 -1.2650336 25
11.421339 1.6331629 -1.2582234 24
11.51582 1.5746331 -1.2678246 23
11.510484 1.5020144 -1.26615 24
11.520469 1.4314817 -1.2662616 29
11.513246 1.3589022 -1.2644753 22
11.56087 1.2926511 -1.268941 31
11.539925 1.218663 -1.2657034 18
11.542241 1.1473408 -1.2651452 22
11.553021 1.0768664 -1.2655917 30
11.606932 1.0100952 -1.2709506 30
11.565366 0.93501192 -1.2655917 25
11.619444 0.86765826 -1.2710623 21
11.593815 0.79423988 -1.2676014 23
11.501271 0.71702355 -1.2566603 34
11.620548 0.65291017 -1.2696109 23
11.489354 0.57483739 -1.2544276 27
11.478766 0.50371879 -1.2528645 22
11.546188 0.43571502 -1.2601212 22
11.569503 0.36552045 -1.2624657 26
11.563581 0.29432186 -1.2615726 31
11.636705 0.22474764 -1.2696109 18
11.59315 0.15275122 -1.2645869 22
11.605794 0.081698462 -1.2659267 21
11.632908 0.010510281 -1.268941 19
11.665547 -0.061038554 -1.2726252 21
11.569559 -0.13153465 -1.2619076 18
11.496995 -0.20127176 -1.2538693 8
11.546211 -0.27300847 -1.2595631 12
11.517499 -0.34305164 -1.2565488 15
11.667123 -0.41916901 -1.27363 17
11.664331 -0.49074924 -1.27363 16
11.556878 -0.55728889 -1.2619076 20
11.593925 -0.63040072 -1.2664849 20
11.570992 -0.70038772 -1.2643636 20
11.535738 -0.76932395 -1.2609028 29
11.52188 -0.83944184 -1.2598979 29
11.560102 -0.91356617 -1.2648102 18
11.600817 -0.98844409 -1.2700574 24
11.631149 -1.0629518 -1.2741883 31
11.534405 -1.1255198 -1.2640288 22
11.59153 -1.2029377 -1.2712855 21
11.575041 -1.2730619 -1.2702807 22
11.58478 -1.346125 -1.2722903 23
11.555588 -1.4146473 -1.2699459 29
11.520078 -1.4821017 -1.2669314 28
11.568872 -1.5605959 -1.2735183 22
11.533495 -1.6279415 -1.2706157 18
11.561631 -1.7043297 -1.2749697 27
11.536222 -1.7729747 -1.273295 23
11.521201 -1.8430984 -1.2728485 19
11.505754 -1.9131047 -1.2724019 20
11.548638 -1.9931293 -1.2786539 20
11.491193 -2.0559037 -1.2735183 28
11.517447 -2.1336129 -1.277984 25
11.498282 -2.2031205 -1.2773142 19
11.465052 -2.2697721 -1.2750814 29
11.517116 -2.353605 -1.282673 19
11.455783 -2.4143932 -1.2773142 24
11.478626 -2.4928627 -1.2816683 24
11.503846 -2.5723538 -1.2863573 30
11.467508 -2.6382136 -1.2840128 27
11.41629 -2.7002938 -1.2799937 35
11.439098 -2.7799122 -1.2845709 30
11.37458 -2.8382616 -1.2791005 32
11.332883 -2.9018395 -1.2763094 25
11.281223 -2.9624891 -1.2724019 22
11.323289 -3.0479243 -1.2794354 29
11.300542 -3.1162887 -1.2789888 29
11.30416 -3.1920493 -1.2816683 34
11.294863 -3.264385 -1.2828963 25
11.329893 -3.3499682 -1.2893716 31
11.338613 -3.428339 -1.2928325 26
11.265144 -3.4817092 -1.2866921 38
11.21893 -3.5429854 -1.2837895 26
11.241431 -3.6260936 -1.2890366 31
11.192541 -3.6862981 -1.2859107 19
11.213042 -3.7694695 -1.2910463 34
11.216962 -3.8475499 -1.2942839 36
11.285068 -3.9484627 -1.3052248 28
11.126783 -3.9698837 -1.2892599 34
11.156382 -4.0577807 -1.2957352 30
11.086547 -4.109581 -1.2903764 50
11.064841 -4.1789341 -1.290823 32
11.088148 -4.2656569 -1.2967399 30
11.097853 -4.3477483 -1.3010941 27
11.062659 -4.4124484 -1.3000892 35
11.065762 -4.4925795 -1.3037734 32
11.046254 -4.563808 -1.3047782 39
11.007965 -4.627265 -1.3035501 35
10.977538 -4.6939402 -1.3033268 29
10.971313 -4.7711153 -1.3061179 30
10.90275 -4.8210645 -1.3013173 34
10.908313 -4.9037614 -1.3056713 32
10.889769 -4.9759698 -1.3071227 25
10.865341 -5.0456243 -1.3079042 26
10.901583 -5.1440005 -1.3162774 32
10.885048 -5.2180967 -1.3181753 39
10.893031 -5.3043647 -1.3231993 24
10.839791 -5.3609715 -1.3206315 26
10.843103 -5.4456668 -1.3252088 33
10.745744 -5.4795952 -1.3171705 44
10.829294 -5.6061854 -1.332019 40
10.750707 -5.649415 -1.3264369 23
10.711455 -5.7129359 -1.3258786 21
10.710284 -5.7969995 -1.3302327 27
10.691063 -5.871696 -1.3323539 32
10.665251 -5.9429889 -1.3336936 21
10.702984 -6.0503721 -1.3432949 23
10.616519 -6.0877552 -1.3369312 18
10.588414 -6.158278 -1.3381593 29
10.617193 -6.2625093 -1.3468674 17
10.59136 -6.3351884 -1.3485421 20
10.516602 -6.3784137 -1.3438531 20
10.500969 -6.4573965 -1.346979 23
10.44597 -6.5122452 -1.3449695 16
10.536026 -6.6585021 -1.3622741 19
10.438069 -6.6865759 -1.3546823 20
10.391844 -6.7472501 -1.3540125 22
10.400058 -6.8436604 -1.3607111 23
10.353736 -6.9045882 -1.3601528 21
10.363049 -7.0030398 -1.3671863 19
10.314144 -7.0625648 -1.3664048 22
10.219175 -7.0900321 -1.3593713 10
10.221007 -7.1846032 -1.3656234 26
10.155684 -7.2321959 -1.3627206 15
10.236844 -7.3850689 -1.3801368 18
10.181709 -7.4407063 -1.3787972 20
10.115893 -7.4882593 -1.3760061 18
10.09997 -7.5728407 -1.3802484 15
10.104756 -7.6737342 -1.3875053 17
10.070085 -7.745285 -1.3892915 20
10.114882 -7.8789845 -1.4024653 10
10.027335 -7.9101276 -1.3968832 16
10.02675 -8.0099592 -1.403805 11
9.9086494 -8.015708 -1.3938688 18
9.8631239 -8.079504 -1.3944271 19
9.8256016 -8.1500216 -1.3962133 15
9.7487745 -8.187789 -1.3923059 11
9.7732992 -8.311183 -1.4033585 24
9.7326622 -8.3800726 -1.4049214 15
9.6346159 -8.399147 -1.3979996 16
9.6194067 -8.4903278 -1.40347 18
9.6197424 -8.5962029 -1.4113967 15
9.5601835 -8.6490669 -1.4103919 13
9.4732237 -8.6766901 -1.4052564 20
9.4511404 -8.7637062 -1.4100569 16
9.3797998 -8.8052101 -1.4073776 16
9.4033947 -8.9365292 -1.4194349 24
9.3627071 -9.0078382 -1.4216678 22
9.2837667 -9.0422373 -1.4179837 22
9.3052435 -9.1750803 -1.4301527 16
9.2797174 -9.2628927 -1.4350649 18
9.2038336 -9.3005867 -1.4320506 15
9.1243629 -9.3341455 -1.428478 27
9.1041946 -9.4285583 -1.4345067 17
9.0790939 -9.5187588 -1.4398655 15
9.016428 -9.5699482 -1.4391956 18
9.0408134 -9.7145662 -1.4529277 13
8.9117622 -9.6945047 -1.4414285 24
8.9088945 -9.8115368 -1.4509181 18
8.883028 -9.9044847 -1.4567235 26
8.8247232 -9.9617786 -1.4571701 34
8.7869911 -10.042662 -1.4611892 32
8.7122097 -10.081351 -1.4589564 20
8.6824465 -10.172411 -1.4645385 17
8.6717482 -10.287037 -1.4735816 9
8.640893 -10.379001 -1.4792752 16
8.6130209 -10.475576 -1.4856389 19
8.5861673 -10.574514 -1.4923375 14
8.5173922 -10.622348 -1.4916676 20
8.4853678 -10.716479 -1.4976963 12
8.4323072 -10.784782 -1.5000408 16
8.332572 -10.793057 -1.4939004 34
8.2854691 -10.869271 -1.497473 36
8.2682219 -10.985806 -1.5067393 25
8.1846552 -11.014795 -1.5037249 29
8.108099 -11.05279 -1.5020503 40
8.0745182 -11.149817 -1.5086372 31
8.012887 -11.208853 -1.5099769 25
7.929636 -11.23751 -1.5071858 15
7.9002929 -11.343034 -1.5150008 13
7.7995815 -11.346256 -1.5088605 8
7.8715291 -11.602776 -1.5372176 12
7.8416533 -11.712788 -1.5455909 11
7.7778544 -11.773119 -1.5472655 15
7.736403 -11.868073 -1.553629 20
7.6763382 -11.935378 -1.5563085 13
7.567286 -11.926037 -1.5488285 17
7.4908032 -11.96719 -1.5481586 28
7.4198432 -12.017156 -1.5487168 32
7.3609581 -12.08707 -1.5519545 41
7.318891 -12.185677 -1.558988 33
7.2318287 -12.209835 -1.5563085 33
7.0926213 -12.144142 -1.5420183 16
7.0754995 -12.287328 -1.5549688 17
7.0372601 -12.396189 -1.5634537 15
6.9984355 -12.505908 -1.5720501 11
6.9215689 -12.548615 -1.5720501 13
6.9137392 -12.718317 -1.5883498 22
6.8271236 -12.744732 -1.5863403 15
6.7631755 -12.813626 -1.5898012 25
6.6761727 -12.839013 -1.5877917 42
6.6063294 -12.897425 -1.5900245 40
6.5396018 -12.96256 -1.5931505 51
6.4740915 -13.03092 -1.5967231 71
6.4079885 -13.098964 -1.6002955 78
6.3305125 -13.144303 -1.6010771 58
6.2514443 -13.186491 -1.6015236 18
6.1594906 -13.201187 -1.598621 21
6.1202559 -13.329946 -1.6098969 34
6.0604424 -13.416151 -1.6159256 20
5.9876938 -13.474879 -1.6186049 23
5.9339533 -13.577838 -1.6267549 22
5.8913374 -13.708944 -1.6383656 26
5.8036289 -13.736596 -1.6373608 61
5.7302871 -13.798562 -1.6405985 68
5.6601577 -13.869346 -1.6449525 58
5.5867863 -13.933331 -1.6485251 81
5.5062866 -13.980292 -1.6500881 56
5.3526421 -13.838645 -1.6289877 18
5.1586075 -13.584165 -1.5944902 14
0 -0 -0 5
3.9745069 -10.866246 -1.2619076 46
3.8312273 -10.67717 -1.2364531 154
3.7557437 -10.672356 -1.2331039 3
3.6211431 -10.495109 -1.209324 1769
3.591064 -10.618797 -1.2213814 6057
3.5258408 -10.640632 -1.2213814 5492
3.4310308 -10.571326 -1.2106637 339
3.3645966 -10.587444 -1.2101055 368
3.2960277 -10.596503 -1.2087657 393
3.2297893 -10.612725 -1.2083192 419
3.1671617 -10.640915 -1.209324 406
3.1034768 -10.665873 -1.2099938 407
3.0371583 -10.681848 -1.209659 412
2.9763455 -10.717517 -1.2116685 384
2.9128685 -10.744209 -1.2126733 418
2.8489218 -10.769566 -1.2135664 380
2.7865117 -10.801277 -1.2152411 379
2.7264853 -10.843229 -1.2181437 369
0 -0 -0 348
0 -0 -0 353
0 -0 -0 1989
2.5026302 -11.097846 -1.2401373 5334
0 -0 -0 225
0 -0 -0 5
0.85325831 -4.1384664 -0.43675876 13
0.82492733 -4.1290069 -0.43508413 16
0.79240221 -4.0969162 -0.43084171 23
0.75481784 -4.0352793 -0.42325005 40
0.72898275 -4.0339675 -0.42258018 40
0.7047295 -4.0413013 -0.4229151 48
0.69030178 -4.1072888 -0.42994857 28
0.66286391 -4.0977135 -0.42838559 27
0.63205612 -4.065372 -0.4242548 31
0.61018103 -4.0898132 -0.42659929 27
0.58366787 -4.083643 -0.42548287 22
0.55725348 -4.0773015 -0.42436644 25
0.53363997 -4.0914836 -0.42559454 17
0.50570595 -4.0719991 -0.42302674 15
0.48164323 -4.0829206 -0.42391989 7
0.45359942 -4.059134 -0.42090553 9
0.42993727 -4.0737 -0.42224526 9
0.40375346 -4.064395 -0.42090553 9
0 -0 -0 7
0.35229525 -4.0512233 -0.41889599 6
0 -0 -0 5
0 -0 -0 6
0 -0 -0 6
0.25647923 -4.1181583 -0.42559454 5
0 -0 -0 4
0 -0 -0 5
0 -0 -0 7
0 -0 -0 9
0 -0 -0 10
0 -0 -0 8
0 -0 -0 7
0.055165127 -4.2062693 -0.43463755 7
0 -0 -0 6
0 -0 -0 4
-0 -0 -0 7
-0.085875914 -7.5411615 -0.80930936 10
-0.1317988 -7.5206208 -0.80707651 4
-0 -0 -0 6
-0 -0 -0 4
-0 -0 -0 4
-0 -0 -0 8
-0.22018459 -4.5610561 -0.47505209 13
-0.26283261 -4.8295207 -0.50541884 54
-0.29258108 -4.8298011 -0.50564212 84
-1.0535201 -15.799396 -1.740965 28
-0 -0 -0 14
-1.2481844 -15.796175 -1.7421931 31
-1.3452531 -15.790199 -1.7424164 38
-1.4448268 -15.811337 -1.7457656 37
-1.5395973 -15.779426 -1.7431978 55
-1.629416 -15.702467 -1.7356062 77
-1.7222584 -15.660564 -1.7320336 87
-1.8122402 -15.597385 -1.7261165 96
-1.9019946 -15.537639 -1.720646 100
-1.9924786 -15.488222 -1.7164037 118
-2.0816312 -15.432372 -1.7114915 135
-2.1705902 -15.378964 -1.7069141 126
-2.2623048 -15.34766 -1.7049046 124
-2.353868 -15.316792 -1.7030066 112
-2.4421558 -15.266735 -1.6989875 122
-2.5281255 -15.205389 -1.6937402 151
-2.6389499 -15.291435 -1.7053511 61
-2.7434003 -15.334627 -1.7121613 49
-2.7764504 -14.988213 -1.6745378 62
-2.8636897 -14.946494 -1.6717467 59
-3.1120262 -15.720207 -1.7624004 43
-3.2074304 -15.695949 -1.7618421 57
-3.3012197 -15.664304 -1.7605025 86
-3.3892589 -15.606851 -1.75626 70
-3.4821384 -15.573153 -1.7548087 62
-3.5736179 -15.534061 -1.752799 40
-3.6697807 -15.515711 -1.7532457 33
-3.7609255 -15.476485 -1.7513478 30
-3.8570194 -15.457938 -1.7519059 28
-3.9505625 -15.429167 -1.7513478 31
-4.0421314 -15.393103 -1.750008 43
-4.1662059 -15.478365 -1.7628469 84
-4.2457805 -15.396946 -1.7563716 122
-4.3423343 -15.378256 -1.7572647 93
-4.4316459 -15.334138 -1.7552552 94
-4.5188894 -15.283786 -1.7525758 132
-4.5961919 -15.20155 -1.7462122 86
-4.6805782 -15.144579 -1.7428629 87
-4.7665334 -15.09378 -1.7402952 100
-4.8587523 -15.063302 -1.7401835 106
-4.947979 -15.023767 -1.7390671 108
-5.0327878 -14.971459 -1.7364993 82
-5.1361623 -14.974136 -1.7405185 90
-5.2226949 -14.927332 -1.7387321 81
-5.3068428 -14.874413 -1.736276 88
-5.3912177 -14.822893 -1.7340431 110
-5.4786143 -14.780216 -1.7329267 91
-5.5688496 -14.745393 -1.7328151 103
-5.6713514 -14.74248 -1.7366109 50
-5.7399549 -14.651886 -1.7299124 75
-5.8396888 -14.641313 -1.7329267 67
-5.9260521 -14.596919 -1.7319219 63
-6.0079169 -14.541913 -1.7296891 71
-6.1047325 -14.523098 -1.7319219 66
-6.1878695 -14.471661 -1.7302474 57
-6.2820973 -14.446178 -1.7318103 86
-6.376647 -14.420994 -1.733485 113
-6.4527898 -14.354403 -1.7301357 106
-6.5345507 -14.300982 -1.728461 101
-6.6221766 -14.260617 -1.728461 101
-6.7129459 -14.226906 -1.7293541 87
-6.8031211 -14.191721 -1.7301357 84
-6.9340105 -14.239951 -1.7414116 108
-7.0230165 -14.2007 -1.7418581 88
-7.1180458 -14.173325 -1.7438678 91
-7.2139058 -14.147089 -1.7461005 74
-7.2960067 -14.093734 -1.7449841 84
-7.3892803 -14.061896 -1.7466588 91
-7.4525099 -13.973327 -1.7411883 102
-7.581151 -14.006866 -1.7513478 73
-7.8281574 -14.253627 -1.7889712 79
-8.0233316 -14.39891 -1.8138674 94
-8.1584749 -14.432459 -1.8245851 64
-8.31954 -14.508855 -1.8409966 57
-8.335968 -14.332973 -1.8248085 96
-8.447484 -14.321785 -1.8300556 24
-3.8010666 -6.3544245 -0.7939027 80
-3.8296788 -6.3139882 -0.79166985 82
-3.8199406 -6.2116442 -0.78128713 125
-3.820658 -6.1282134 -0.77336055 133
-3.8348298 -6.0676918 -0.76844823 133
-3.847332 -6.0055547 -0.7633127 146
-3.8624635 -5.9484954 -0.758847 144
-3.871032 -5.8823457 -0.75315326 154
-3.8921669 -5.8361597 -0.75013894 167
-3.9173322 -5.7965236 -0.74801773 148
-3.9399123 -5.7535186 -0.74544996 165
-3.9655116 -5.7153549 -0.74355203 147
-3.9965055 -5.6852245 -0.74277049 130
-4.0301614 -5.6589766 -0.74254721 135
-4.0630641 -5.6317234 -0.7422123 122
-4.09168 -5.5986633 -0.7410959 81
-4.1466489 -5.601408 -0.74500334 83
-4.2131305 -5.6187944 -0.75103205 61
-4.2769756 -5.6316171 -0.75650251 46
-4.3217492 -5.6186595 -0.75840044 34
-4.3598075 -5.5967398 -0.75907028 28
-3.7989268 -4.8154011 -0.65111214 14
-3.8215795 -4.7834601 -0.64988405 36
-3.8271093 -4.7305617 -0.64564162 10
-3.8296156 -4.6747017 -0.64095265 16
-3.8468077 -4.6373477 -0.63894308 9
-3.8540993 -4.5885444 -0.63525891 9
-3.8004253 -4.4686646 -0.62108034 10
-3.7914636 -4.4030886 -0.61482835 10
-3.7576807 -4.3100762 -0.60444564 9
-3.7577531 -4.2571359 -0.59997994 11
-3.7506969 -4.1969471 -0.59439778 11
-3.7663782 -4.1628003 -0.59272319 13
-3.7717144 -4.1176267 -0.58937389 11
-3.7820442 -4.0783749 -0.58691776 9
-0 -0 -0 3
-0 -0 -0 4
-0 -0 -0 8
-3.779072 -3.8796802 -0.57050633 9
-4.7363257 -4.8032408 -0.7198838 12
-3.7955079 -3.8020656 -0.56559408 14
-3.8131149 -3.7731133 -0.5647009 11
-3.8283777 -3.7420039 -0.56347287 12
-3.8391137 -3.7067077 -0.56157494 19
-3.85028 -3.6721072 -0.55978864 28
-3.8351293 -3.6129763 -0.55398327 161
-3.8623178 -3.5941155 -0.55476475 172
-3.8908825 -3.5764019 -0.55576956 192
-3.9134893 -3.5531287 -0.5558812 166
-3.942615 -3.5356843 -0.5569976 127
-0 -0 -0 4
-0 -0 -0 3
-4.1566486 -3.5918241 -0.57921445 5
-0 -0 -0 3
-4.2900672 -3.6161263 -0.59238821 4
-4.3992362 -3.6622214 -0.60511547 3
-4.4669123 -3.6723969 -0.61170238 7
-0 -0 -0 5
-4.5015631 -3.6092227 -0.61025101 3
-4.5462174 -3.5994241 -0.61348861 5
-0 -0 -0 3
-4.606564 -3.5561173 -0.6158331 8
-4.6417322 -3.538027 -0.61773103 11
-0 -0 -0 3
-4.7238836 -3.5098429 -0.62320155 6
-4.7773805 -3.5043044 -0.62766725 109
-4.8100605 -3.4830854 -0.6292302 134
-4.8499351 -3.4667985 -0.63179797 6
-4.8962855 -3.4547367 -0.63525891 6
-5.0030122 -3.4842663 -0.64698136 6
-0 -0 -0 3
-5.1095357 -3.4661276 -0.65568948 5
-5.2529187 -3.516536 -0.67221254 9
-5.3697472 -3.5472348 -0.68505138 4
-5.3764267 -3.5044513 -0.68304187 8
-5.4212308 -3.4864485 -0.68616784 9
-0 -0 -0 4
-5.5545774 -3.4766057 -0.6982252 10
-5.6206188 -3.4701295 -0.70414227 55
-5.6358643 -3.4319582 -0.70336074 167
-5.7002625 -3.4234087 -0.70905453 108
-0 -0 -0 5
-8.8335848 -5.159008 -1.111302 6
-0 -0 -0 4
-8.8564758 -5.0276489 -1.1061665 3
-8.8784866 -4.968359 -1.10505 10
-0 -0 -0 4
-0 -0 -0 5
-6.3273897 -3.3892391 -0.76844823 53
-6.4148579 -3.3856065 -0.77693307 95
-8.8688946 -4.6116061 -1.0850661 295
-8.8483791 -4.5321817 -1.0789257 253
-8.8769083 -4.4782515 -1.0790373 424
-8.8481522 -4.3958421 -1.0720038 57
-8.8731728 -4.3405948 -1.0717806 71
-8.8799429 -4.2765813 -1.0693245 73
-8.8790779 -4.2092428 -1.0659752 63
-8.8804235 -4.1433368 -1.0629609 77
-8.8921328 -4.0825496 -1.0612862 62
-8.8979979 -4.01932 -1.0589417 48
-8.8952484 -3.9525404 -1.0555924 56
-8.8947477 -3.8871403 -1.0525781 43
-8.877347 -3.8148327 -1.0475543 64
-8.8731251 -3.7486873 -1.044205 43
-8.8684273 -3.6827376 -1.0408556 42
-8.8715353 -3.6203668 -1.0385112 48
-8.8769808 -3.5592065 -1.0365016 44
-8.887557 -3.5003009 -1.0351619 60
-8.8894043 -3.4381733 -1.0328174 52
-8.8898945 -3.375802 -1.0303613 43
-8.8834372 -3.3111248 -1.0271237 53
-8.8839884 -3.2493856 -1.0247792 42
-8.8785048 -3.1857505 -1.0217648 43
-8.879137 -3.1246147 -1.019532 34
-8.8643236 -3.0584047 -1.0155128 49
-8.8819818 -3.0036383 -1.0154012 34
-8.8889246 -2.9453316 -1.0140615 29
-8.864296 -2.8769283 -1.0090376 91
-8.8685226 -2.8182697 -1.0074745 61
-8.8894434 -2.7649813 -1.0079211 30
-1.5060951 -0.4579913 -0.1388969 26
-1.5212586 -0.45242727 -0.14034826 63
-1.518281 -0.44141844 -0.1396784 66
-1.5180933 -0.43127868 -0.13934347 67
-1.5168811 -0.42089194 -0.1388969 55
-1.519435 -0.4115766 -0.1388969 48
-1.5219319 -0.40224579 -0.1388969 50
-1.5166734 -0.39091364 -0.13800377 65
-1.5267534 -0.38353905 -0.1388969 39
-1.5165303 -0.37109002 -0.13744555 43
-1.4994459 -0.35716739 -0.1352127 105
-1.5161297 -0.351329 -0.13688734 50
-1.5211651 -0.34267551 -0.13722228 44
-1.5222684 -0.33312267 -0.13711062 25
-1.5126196 -0.3212952 -0.13577092 25
-1.5204022 -0.31321245 -0.13644077 43
-1.5076783 -0.30095577 -0.13476613 98
-1.5055939 -0.29094398 -0.13431957 123
-1.5132115 -0.28279722 -0.13498943 105
-1.5168741 -0.27386063 -0.1352127 124
-1.5175469 -0.2643773 -0.13510107 83
-1.5171806 -0.25473121 -0.13487777 83
-1.520677 -0.24573475 -0.13510107 85
-1.523138 -0.23655219 -0.1352127 85
-1.523578 -0.22705521 -0.13510107 74
-1.5308449 -0.21854664 -0.13577092 83
-1.5311725 -0.20901477 -0.13565928 82
-1.5314407 -0.19948712 -0.13554764 65
-1.5217882 -0.18873835 -0.13431957 82
-1.5229176 -0.17939728 -0.13431957 87
-0 -0 -0 111
-1.5121572 -0.15933806 -0.13286822 102
-1.508162 -0.14956498 -0.13231 112
-1.5021251 -0.13966241 -0.13152851 110
-1.4999839 -0.13018435 -0.13119358 100
-1.4987733 -0.12081794 -0.1309703 110
-1.5034504 -0.11191551 -0.13141686 110
-1.5031174 -0.10262045 -0.13130522 102
-1.5106615 -0.093828633 -0.13208672 98
-1.512201 -0.084613405 -0.13219836 150
-1.5156692 -0.075482197 -0.13253328 117
-1.5180894 -0.066268004 -0.13275658 107
-1.5204536 -0.057026956 -0.13297985 117
-1.5227613 -0.047759384 -0.13320315 123
-1.4865414 0.10852022 -0.14803056 64
-1.4868367 0.11771851 -0.14815451 62
-1.4900408 0.12717998 -0.1486503 54
-1.5149227 0.13869207 -0.15187295 89
-1.5199683 0.14856856 -0.15261663 133
-1.5190279 0.15789211 -0.15261663 164
-1.5150719 0.16688153 -0.15224479 432
-1.515005 0.17629014 -0.15236874 172
-1.5158644 0.18582569 -0.15261663 184
-1.5166638 0.19537842 -0.15286453 182
-1.5193694 0.20521507 -0.15336032 166
-1.5269234 0.21579024 -0.15447585 160
-1.5481461 0.22850448 -0.15732665 113
-1.5447537 0.23769614 -0.15707876 124
-1.5520833 0.24858898 -0.15819429 96
-1.559337 0.25958067 -0.15930982 61
-1.5577149 0.2691437 -0.15930982 55
-1.5570108 0.27887225 -0.15943377 65
-1.5542948 0.288239 -0.15930982 66
-1.5573689 0.29870871 -0.15992956 84
-1.5603728 0.30922696 -0.1605493 99
-1.5623342 0.3195937 -0.16104509 101
-1.5613145 0.32937953 -0.16116904 107
-1.5718675 0.3417027 -0.16278036 121
-1.5745821 0.35242823 -0.1634001 118
-1.5743237 0.36252978 -0.16364799 98
-1.573035 0.37241215 -0.16377194 64
-1.5215559 0.37006101 -0.1574506 24
-9.4949112 2.3773725 -1.1844826 16
-9.4839897 2.4365757 -1.1849784 119
-9.4794149 2.4975045 -1.1863418 133
-9.4763651 2.5589867 -1.1879531 147
-9.4786558 2.6221132 -1.1903081 133
-9.4805279 2.685364 -1.1926631 116
-9.4753084 2.7468016 -1.1941504 126
-9.4668379 2.8074293 -1.195266 107
-9.4722223 2.8723776 -1.1982408 103
-9.4676886 2.9345584 -1.1999761 119
-9.4674768 2.9982901 -1.2023311 126
-9.4725046 3.0639625 -1.2054298 102
-9.4780226 3.1301203 -1.2086524 95
-9.4727421 3.1929731 -1.2105116 96
-9.4417124 3.2471628 -1.2090242 82
-9.3111267 3.2662635 -1.1943984 70
-9.1376886 3.2685068 -1.174071 78
-8.9841557 3.2758875 -1.1563464 120
-8.9610958 3.3299143 -1.1559745 126
-8.959054 3.3918648 -1.1584535 147
-8.9584408 3.4546299 -1.1611804 135
-8.9536991 3.5160635 -1.1634114 167
-8.9466982 3.5768316 -1.1653945 156
-8.94664 3.6406391 -1.1683693 148
-8.9498024 3.7060993 -1.1718398 143
-8.8958035 3.7478418 -1.1676257 83
-8.9246254 3.8246403 -1.1746907 50
-8.9173622 3.886467 -1.1769217 40
-8.9015121 3.9447289 -1.1780373 53
-8.892519 4.0062041 -1.1801444 57
-8.8858128 4.0689569 -1.1826234 47
-8.8768721 4.1309404 -1.1848544 44
-8.881856 4.1997557 -1.1890687 48
-8.8791742 4.2653489 -1.1922913 63
-8.8769121 4.331502 -1.1956378 54
-8.8786163 4.399991 -1.1996042 59
-8.8904505 4.4740176 -1.2050579 61
-8.8919888 4.5433865 -1.2091482 52
-8.8921289 4.6124854 -1.2131145 70
-8.898778 4.6854558 -1.2180724 54
-8.8943644 4.7530675 -1.221543 71
-8.8842211 4.8179617 -1.2242699 53
-8.8684006 4.8800392 -1.226253 57
-8.9145288 4.9769382 -1.2371604 349
-8.9019547 5.0418143 -1.2397633 240
-8.9061251 5.1166115 -1.2448452 327
-8.9037104 5.1881514 -1.2490594 352
-8.897336 5.2578335 -1.2527778 358
-8.8989506 5.3327336 -1.2577357 368
-8.8999805 5.4078512 -1.2626936 337
-8.9046459 5.4857841 -1.2682713 300
-8.9305696 5.5776458 -1.2770716 55
-8.9112673 5.6418939 -1.2793027 49
-7.3333025 4.705893 -1.0502471 45
-7.3325691 4.7691994 -1.0544612 21
-7.2990255 4.8113704 -1.0538415 11
-7.2578158 4.8483477 -1.0521063 16
-7.2098536 4.8805494 -1.0493793 18
-7.1044955 4.8730488 -1.0379761 6
-7.0679431 4.9120183 -1.0369846 12
-7.0271244 4.947866 -1.0353733 11
-6.9174733 4.9344077 -1.0232264 9
-6.8275557 4.933744 -1.0140543 6
-8.9411955 6.5454454 -1.3459866 22
-8.9056473 6.6037312 -1.3467304 18
-8.9006615 6.685071 -1.3523079 47
-8.8760576 6.7521768 -1.3549109 42
-7.1217985 5.4867067 -1.0848285 34
-6.4434214 5.0272465 -0.98269546 9
-6.4381437 5.0869923 -0.98678571 9
-6.3936396 5.1158595 -0.98467863 12
-6.3667541 5.1587424 -0.98542231 16
-6.3403502 5.2021174 -0.98628992 24
-8.906867 7.4004173 -1.4083323 13
-8.8817911 7.4721794 -1.411679 18
-8.8463497 7.5355458 -1.4134142 24
-0 0 -0 5
-5.5096488 4.8105998 -0.87548053 5
-5.433197 4.8029041 -0.86767185 12
-5.3991885 4.83218 -0.86692816 13
-5.3584089 4.8552222 -0.86506891 5
-5.4805899 5.0275555 -0.89085007 10
-5.4983468 5.1063385 -0.8991546 16
-5.4661884 5.1392999 -0.89903063 9
-5.3921514 5.1323729 -0.89171773 97
-5.3741322 5.1784463 -0.89407271 113
-5.3948116 5.2626061 -0.90324485 179
-5.3772435 5.3102536 -0.90584779 201
-5.3550839 5.3536725 -0.90770698 233
-5.3395667 5.404079 -0.9108057 70
-8.9063148 9.1263685 -1.5547148 30
-8.8288021 9.1586962 -1.5508724 54
-8.8312807 9.2745028 -1.5615319 10
-5.3127418 5.6477032 -0.93038946 9
-5.2705593 5.6721978 -0.92902601 26
-9.5057001 10.358197 -1.7179542 100
-9.4759493 10.453826 -1.7242755 128
-9.4797974 10.587923 -1.7370421 142
-9.4659214 10.703874 -1.7467101 113
-9.4764328 10.849199 -1.761212 165
-9.4764414 10.984533 -1.7739786 126
-9.4963789 11.1452 -1.7908355 140
-9.5070324 11.29741 -1.806205 123
-9.498415 11.428797 -1.818104 163
-9.4847641 11.555899 -1.8292593 125
-9.4886513 11.706388 -1.844133 121
-9.511508 11.882923 -1.8630971 118
-9.4876366 12.003343 -1.8730129 88
-9.4693604 12.132519 -1.8842921 99
-9.4710512 12.289431 -1.8999096 122
-9.4873924 12.468139 -1.9188737 105
-9.4798431 12.618151 -1.9332516 115
-9.501544 12.80998 -1.9540749 125
-9.4831419 12.950505 -1.9668415 126
-9.4610453 13.088067 -1.9791123 107
-9.4842978 13.291271 -2.0014229 114
-9.4882679 13.470909 -2.020015 96
-9.4994497 13.664129 -2.0405905 120
-9.5046835 13.85226 -2.0602982 96
-9.5090771 14.042608 -2.0802538 89
-9.4988089 14.21455 -2.0973585 111
-9.4775009 14.372807 -2.1123562 75
-9.4524412 14.528007 -2.1268582 122
-9.348114 14.56235 -2.1233876 131
-9.2028446 14.531408 -2.110373 79
-9.1008921 14.567404 -2.1073983 76
-9.0108166 14.622127 -2.1072743 80
-8.9446325 14.716147 -2.1129761 57
-8.858758 14.778414 -2.1140914 32
-8.7108603 14.735963 -2.1000855 38
-8.60429 14.761701 -2.0961192 57
-8.6030321 14.969945 -2.1185536 41
-8.5789986 15.142461 -2.1357825 62
-8.5376883 15.287518 -2.1490448 23
-8.5666857 15.563032 -2.1808994 28
-8.5254383 15.715611 -2.1951535 24
-8.5663652 16.024916 -2.2315941 73
-8.5418549 16.217653 -2.2514257 15
-8.5463734 16.470583 -2.2796857 26
-8.4717922 16.574844 -2.2869987 14
-8.46451 16.814421 -2.3132758 26
-9.7841291 19.736837 -2.7135034 27
-9.1680031 18.782576 -2.5725746 108
-9.043128 18.8188 -2.5698478 106
-8.9202757 18.858683 -2.5677407 44
-8.791832 18.886074 -2.5640223 33
-8.2861366 18.088921 -2.4471395 116
-3.0536158 6.7738719 -0.88998246 48
-3.0039527 6.7743378 -0.8875035 176
-2.9639158 6.7962804 -0.8879993 123
-2.9178586 6.8043065 -0.88663584 8
-0 0 -0 4
-0 0 -0 4
-0 0 -0 7
-0 0 -0 4
-0 0 -0 4
-0 0 -0 5
-0 0 -0 4
-0 0 -0 5
-0 0 -0 4
-0 0 -0 4
-0 0 -0 7
-0 0 -0 4
-0 0 -0 4
-0 0 -0 5
-2.1723061 6.7104149 -0.84288228 4
-0 0 -0 5
-0 0 -0 3
-2.0438128 6.7340698 -0.84089911 6
-2.004148 6.7521915 -0.8416428 11
-0 0 -0 7
-1.9176209 6.7638659 -0.84003145 5
-0 0 -0 7
-0 0 -0 3
-0 0 -0 6
-0 0 -0 4
-0 0 -0 4
-0 0 -0 5
-0 0 -0 5
-1.5635477 6.7637639 -0.82900012 8
-0 0 -0 5
-0 0 -0 7
-0 0 -0 4
-0 0 -0 6
-0 0 -0 9
-0 0 -0 5
-0 0 -0 4
-0 0 -0 5
-0 0 -0 6
-0 0 -0 4
-0 0 -0 4
-0 0 -0 4
-0 0 -0 5
-0 0 -0 6
-0 0 -0 3
-0 0 -0 5
-0.83974349 6.8001795 -0.81772083 8
-0.79961812 6.8190022 -0.8194561 101
-0.75743443 6.8208213 -0.81908429 136
-0.71546513 6.8243537 -0.81896031 130
-0.67386991 6.8315778 -0.81933218 120
-0.632213 6.8385482 -0.819704 120
-0.59075123 6.8482304 -0.82044768 110
-0.54895729 6.8546934 -0.82081956 126
-0.50754416 6.8668394 -0.82193506 107
-0.46700609 6.8935852 -0.82490981 96
-0.42524651 6.9052343 -0.82602537 96
-0.3822118 6.8958244 -0.82453799 109
-0.34660876 7.034811 -0.8416428 63
-0.30420399 7.0546498 -0.84387386 59
-0.26167828 7.0772076 -0.84647673 42
-0.21922176 7.1104183 -0.85044307 39
-0.17580789 7.1205578 -0.85155863 39
-0.13302583 7.1711082 -0.85775602 37
-0.089520589 7.2124705 -0.86283785 27
-0.045330752 7.2237988 -0.86420131 31
-0.001006456 7.1802802 -0.8587476 42
0.043582525 7.266479 -0.86953104 22
0.14018261 11.496874 -1.3980447 86
0.21065032 11.491829 -1.3975489 110
0.28128076 11.49528 -1.3981687 124
0.35238793 11.512182 -1.4005237 118
0.42141074 11.466172 -1.39507 41
0.46711847 10.890357 -1.3234282 63
0.53549039 10.919002 -1.3273945 39
0.60423136 10.947215 -1.3313608 42
0.70048648 11.416722 -1.3906078 90
0.7403326 10.965706 -1.3347074 55
0.80241859 10.890696 -1.3259071 68
0.86614305 10.846992 -1.3210731 57
0.92799902 10.787098 -1.314256 25
1.6162112 17.518965 -2.1594565 14
1.7236751 17.508718 -2.1594565 20
1.827974 17.468204 -2.1557379 16
1.9272461 17.385651 -2.1468136 16
2.0350406 17.383354 -2.1480532 20
0 0 -0 18
2.2340522 17.247841 -2.134295 17
2.304847 16.976194 -2.1018207 6
0 0 -0 6
2.5084832 16.916204 -2.0979784 8
2.6346745 17.045628 -2.1163225 9
2.6531358 16.494234 -2.0486469 13
2.7335074 16.353348 -2.0329056 7
2.8885999 16.652058 -2.0729408 11
3.0119755 16.752192 -2.0879385 11
3.1108937 16.712908 -2.0853355 12
3.2011876 16.630171 -2.0772791 9
3.2934878 16.561554 -2.0710816 15
3.3712962 16.425365 -2.0563319 20
3.4753053 16.419903 -2.058315 14
3.5734527 16.386635 -2.0568275 13
3.6482749 16.250156 -2.0422018 17
3.7387571 16.187824 -2.0371199 12
3.8001792 16.005283 -2.0166686 10
3.896903 15.975881 -2.0159247 15
3.9801471 15.892953 -2.008364 13
4.06425 15.816336 -2.0016708 12
3.9343503 14.930416 -1.8904896 18
4.0320988 14.928985 -1.8934643 22
4.1297131 14.92596 -1.8963151 24
4.2098565 14.860242 -1.8911093 17
4.3625937 15.046654 -1.9187497 16
3.9854789 13.437583 -1.7126244 22
4.0710239 13.423321 -1.7139878 13
4.1680059 13.445477 -1.7201852 7
4.2588186 13.446136 -1.7236557 11
4.8187332 14.895367 -1.9173863 6
4.4440475 13.455047 -1.7318363 22
4.5363512 13.456674 -1.7356787 23
4.6217399 13.43703 -1.7367942 16
5.1371608 14.642475 -1.9001575 21
5.2128677 14.571439 -1.8949517 17
5.2872162 14.498162 -1.889498 23
5.3580966 14.417082 -1.8830527 15
5.4271274 14.332896 -1.8762356 18
5.5088992 14.283587 -1.8741285 19
5.5695896 14.181171 -1.8649563 23
5.6222305 14.061046 -1.8534292 21
5.7218699 14.05937 -1.8578913 21
5.7898011 13.979993 -1.8519418 25
5.8558178 13.89757 -1.8456204 38
5.9143953 13.79936 -1.8371919 25
5.9953861 13.754623 -1.8360765 26
6.0800719 13.718485 -1.8362004 22
6.1302938 13.605833 -1.8259127 22
6.1930003 13.522855 -1.8197154 14
6.2490578 13.427027 -1.8117827 25
6.2961116 13.313978 -1.801495 19
6.3604951 13.23932 -1.796537 18
6.4063549 13.127813 -1.7864974 27
6.4687157 13.051806 -1.7814155 27
6.5027232 12.920577 -1.7686489 11
6.5931702 12.902524 -1.7717475 24
6.6703863 12.858303 -1.7712517 24
6.7278872 12.776746 -1.7655501 24
6.7925916 12.709846 -1.7619556 23
6.8609872 12.650483 -1.7594767 20
6.8006763 12.357787 -1.7237797 17
6.9218521 12.397264 -1.7354308 19
6.9571934 12.282899 -1.7251431 29
7.0175967 12.214169 -1.7214247 33
7.0759201 12.142589 -1.7173344 20
7.1457481 12.091255 -1.7162188 12
7.1769509 11.975689 -1.7058072 29
7.2193751 11.880549 -1.6983703 14
7.2577796 11.780273 -1.6901898 19
7.3472748 11.76329 -1.6942801 23
7.3970175 11.682777 -1.6890743 33
7.4540896 11.614623 -1.6857277 21
7.4781361 11.496305 -1.6749443 31
7.5556364 11.460973 -1.6765555 29
7.5905342 11.361594 -1.6686229 26
7.6333995 11.275367 -1.6626734 16
7.6502314 11.152222 -1.6511463 25
7.6216621 10.965748 -1.6299511 27
7.6882315 10.917964 -1.6298273 29
7.7268372 10.831005 -1.6237538 21
7.7361822 10.704579 -1.6116068 20
7.7747526 10.620081 -1.6059053 31
7.8261738 10.553845 -1.6030545 37
7.8574076 10.461198 -1.5961134 25
7.9160404 10.405682 -1.5949979 34
7.9688373 10.342766 -1.5927668 34
8.0034552 10.256909 -1.5869412 37
8.0323992 10.164791 -1.5801241 17
8.0481129 10.057211 -1.5708281 38
8.1059227 10.003015 -1.5700843 40
8.140708 9.9208736 -1.5648786 26
8.2134781 9.8852358 -1.5672336 31
8.2426729 9.7974501 -1.5611601 29
8.2961979 9.7391357 -1.5599207 37
8.308485 9.6331987 -1.5508724 31
8.3347998 9.5446701 -1.544675 30
8.359684 9.4554377 -1.5383537 26
8.4155588 9.4017477 -1.5379819 34
8.4677572 9.3440523 -1.5369903 28
8.4947414 9.2590189 -1.5314126 46
8.5264053 9.1798229 -1.5268265 47
8.5655756 9.1092625 -1.5237279 42
8.6260977 9.0615644 -1.5245955 29
8.6498585 8.9756012 -1.5188938 26
8.6548719 8.8712234 -1.5099696 33
8.6749725 8.7833605 -1.5038962 22
8.7413321 8.7425957 -1.5061272 28
8.7355108 8.6302204 -1.4957156 36
8.789011 8.5771513 -1.4958396 35
8.8171816 8.499649 -1.4916253 38
8.8361092 8.4139137 -1.4859238 43
8.8514271 8.3255491 -1.4797263 35
8.8827152 8.2528467 -1.4763798 34
8.8929729 8.1612911 -1.4695626 30
8.9700871 8.1312265 -1.4741488 25
8.9547501 8.0177917 -1.4632413 37
9.0112114 7.9692683 -1.4644808 37
9.0307913 7.8883705 -1.4596468 36
9.0549793 7.8120704 -1.4556805 29
9.1427765 7.7904687 -1.4622498 38
9.1228294 7.6773653 -1.4512184 34
9.1491594 7.6041212 -1.4478718 37
9.1810713 7.5358796 -1.4455167 27
9.1986132 7.4562874 -1.4409307 28
9.2403173 7.3966055 -1.440311 35
9.301877 7.3526888 -1.4429139 31
9.339777 7.2899809 -1.4417983 22
9.3332405 7.1931682 -1.4337417 26
9.3369265 7.105123 -1.4274204 29
9.3668594 7.0375676 -1.4253132 26
9.4584837 7.0160174 -1.4328741 17
9.4653263 6.9314709 -1.4272964 34
9.4763136 6.8505931 -1.4224625 27
9.5189781 6.7928948 -1.4225864 19
9.5142355 6.7017927 -1.4155214 32
9.4712553 6.5849528 -1.4027548 31
9.5581207 6.5587115 -1.4098197 28
9.5554581 6.4710116 -1.4033744 19
9.5586796 6.3880029 -1.3979207 22
9.5935535 6.3265009 -1.3973011 40
9.6937437 6.3075585 -1.4064732 27
9.6671276 6.2061529 -1.3968053 18
9.6899347 6.1371641 -1.3945742 15
9.6945877 6.0570903 -1.3897402 20
9.7771902 6.0255995 -1.3964334 19
9.7978668 5.9557033 -1.3940784 15
9.7559223 5.8485413 -1.3826752 26
9.6745939 5.7194004 -1.3656943 21
9.6734972 5.6389461 -1.3604885 31
9.7879295 5.6254606 -1.3720157 30
9.7747765 5.5383978 -1.3651985 26
9.7903814 5.4681573 -1.3625957 22
9.8237495 5.4079819 -1.3625957 18
9.8925095 5.3669996 -1.3676775 25
9.871871 5.277667 -1.3601167 37
9.8988008 5.214221 -1.359373 20
9.9922647 5.1853724 -1.3680494 35
10.000036 5.1117716 -1.3647027 31
10.010827 5.0400553 -1.3618519 24
10.031784 4.9736876 -1.3604885 28
10.057654 4.9098644 -1.3598688 31
10.054499 4.832159 -1.3552827 28
10.04449 4.7517085 -1.349829 32
10.104943 4.7046423 -1.3541672 37
10.117381 4.6351137 -1.3519361 22
10.166439 4.5823231 -1.3547869 17
10.148098 4.4993501 -1.3484656 31
10.103655 4.4056726 -1.3386737 36
10.142354 4.3486767 -1.3402851 37
10.160616 4.2828946 -1.3391695 26
10.167452 4.2124958 -1.3365666 23
10.17105 4.1410522 -1.3335918 20
10.223908 4.0896187 -1.3373103 19
10.222949 4.0166516 -1.3338398 24
10.219628 3.943136 -1.3301213 29
10.277966 3.8933575 -1.3347074 29
10.287709 3.8250341 -1.3328482 19
10.283019 3.7516382 -1.3291297 26
10.251657 3.6690843 -1.3219408 32
10.300194 3.6153111 -1.3254113 20
10.229289 3.520087 -1.3131404 27
10.33532 3.4857864 -1.3242958 25
10.297155 3.4026964 -1.3164871 27
10.320672 3.3403664 -1.3168589 36
10.394894 3.2940576 -1.3239239 33
10.433866 3.2360907 -1.3264029 25
10.44498 3.1694164 -1.3252873 25
10.439496 3.0979307 -1.3220646 36
10.397314 3.0161302 -1.314132 29
10.456677 2.9639082 -1.3194618 25
10.479448 2.9010146 -1.3200815 25
10.422331 2.8164759 -1.3104136 28
8.5846539 2.2636566 -1.0708224 11
8.6060696 2.2129157 -1.0718139 21
8.6079359 2.1571751 -1.0703266 8
10.43529 2.5469162 -1.3035965 31
10.496098 2.4936135 -1.309422 19
8.6703548 2.0039489 -1.0734253 17
8.6853914 1.951363 -1.0737971 20
10.522767 2.2961862 -1.3071909 12
10.570636 2.2387686 -1.3115292 28
10.536545 2.1640892 -1.3054557 33
10.56617 2.1026881 -1.3075628 26
10.600309 2.0419426 -1.3102896 37
10.530695 1.961607 -1.299878 37
10.576715 1.9031016 -1.3042161 33
10.579393 1.8366416 -1.3031007 25
10.556209 1.7659664 -1.2987624 30
10.561948 1.7003734 -1.2981428 33
10.558453 1.6334121 -1.2964075 40
10.57711 1.5699061 -1.297523 32
10.591456 1.5056744 -1.2981428 38
10.564115 1.4357178 -1.2935567 39
10.597327 1.3740578 -1.2966554 44
10.638058 1.3130156 -1.3007456 42
10.657741 1.2491018 -1.302233 31
10.666191 1.1837929 -1.302357 35
10.666346 1.117601 -1.3014894 27
10.68189 1.0530077 -1.3026049 20
10.707911 0.98926866 -1.3050839 29
10.721689 0.92422843 -1.3060755 30
10.72518 0.85826588 -1.3058275 30
10.729255 0.79236829 -1.3057035 17
10.716094 0.72531563 -1.3034725 20
10.684688 0.65735954 -1.2990104 30
10.72617 0.5938676 -1.3037204 28
10.741505 0.52862591 -1.3052077 30
10.756442 0.46321833 -1.3066951 26
10.722392 0.39585873 -1.3021091 21
10.771235 0.3314895 -1.3079346 22
10.774058 0.26541653 -1.3080586 23
10.751673 0.19886534 -1.3050839 22
10.746737 0.13281764 -1.3043401 23
10.753304 0.066910796 -1.3050839 19
10.799157 0.00092750433 -1.3107854 28
10.775146 -0.065188251 -1.3078107 22
10.805301 -0.13168024 -1.311653 27
10.774526 -0.19742924 -1.3079346 33
10.731448 -0.26251307 -1.3027288 20
10.785177 -0.33006081 -1.3096699 25
10.803773 -0.39699864 -1.3122728 22
10.805099 -0.4634524 -1.3127686 28
10.773311 -0.52832991 -1.3091741 19
10.795626 -0.59584832 -1.3123968 31
10.797709 -0.66244304 -1.3131404 20
10.782551 -0.72794765 -1.311777 21
10.809548 -0.79643106 -1.3157433 22
10.726317 -0.85649413 -1.3059515 25
10.725802 -0.92271924 -1.3065712 21
10.736736 -0.99006492 -1.3086783 25
10.823285 -1.0650703 -1.3203294 14
10.761281 -1.1256735 -1.3133883 25
10.762061 -1.1925576 -1.3143799 24
10.827472 -1.2671126 -1.323552 17
10.760404 -1.3262357 -1.3161151 23
10.825868 -1.4017999 -1.3254113 26
10.75905 -1.4603195 -1.3180983 25
10.71059 -1.5207245 -1.3131404 26
10.780563 -1.5982101 -1.3231802 32
10.740154 -1.6596274 -1.3193378 22
10.670008 -1.7158796 -1.311777 33
10.781616 -1.8017751 -1.3272705 19
10.704853 -1.8565284 -1.318966 34
10.674705 -1.9188396 -1.3166109 43
10.688093 -1.9890251 -1.3198336 37
10.701022 -2.0594471 -1.3230562 39
10.741711 -2.1357169 -1.3298734 28
10.693412 -2.194402 -1.3254113 27
10.660331 -2.2558634 -1.3229324 32
10.640471 -2.3199625 -1.3221886 26
10.668635 -2.3947747 -1.3276423 18
10.635371 -2.4559472 -1.3252873 34
10.618171 -2.5206997 -1.3250394 32
10.619856 -2.5900381 -1.3272705 31
10.626865 -2.6609385 -1.3302453 32
10.548831 -2.7102838 -1.3223126 41
10.576139 -2.7865934 -1.3280141 26
10.547347 -2.8483293 -1.3265268 32
10.521065 -2.9106109 -1.3254113 27
10.536422 -2.9845812 -1.3297495 36
10.562702 -3.0621657 -1.335575 32
10.537055 -3.124944 -1.3347074 35
10.492044 -3.1817615 -1.3313608 52
10.49128 -3.2519572 -1.3338398 36
10.455994 -3.3114741 -1.3318566 35
