# .PCD v0.7 - Point Cloud Data file format
VERSION 0.7
FIELDS x y z intensity
SIZE 4 4 4 4
TYPE F F F F
COUNT 1 1 1 1
WIDTH 1465
HEIGHT 1
VIEWPOINT 0 0 0 1 0 0 0
POINTS 1465
DATA ascii
12.446061 9.1302366 -1.315612 15
12.471996 9.0320778 -1.3123808 28
12.541769 8.9658089 -1.3139527 14
12.540385 8.8490534 -1.307927 17
12.543765 8.73664 -1.3025125 8
12.642286 8.690547 -1.3073157 13
12.608814 8.5540867 -1.298146 17
12.624642 8.4521732 -1.2943035 20
12.528319 8.2768049 -1.2787589 16
12.545489 8.1780157 -1.2752657 14
12.62308 8.1186676 -1.2781476 21
12.60621 7.9988952 -1.2712486 28
12.590034 7.8806944 -1.2645241 19
12.606791 7.7839298 -1.2612929 21
12.628791 7.6908846 -1.2586731 14
12.67062 7.6101732 -1.2581491 16
12.687078 7.5145154 -1.2550925 23
12.685636 7.4088941 -1.2502894 17
12.675609 7.2991004 -1.2447003 20
12.6933 7.2059402 -1.2419931 22
12.752055 7.1361909 -1.2434777 17
12.73367 7.0236487 -1.2372773 27
12.741518 6.9263525 -1.2337841 21
12.692454 6.799118 -1.2247019 19
12.881939 6.7992344 -1.2393732 26
12.904856 6.7104125 -1.2375393 22
12.861558 6.5879564 -1.229243 32
12.861716 6.4887228 -1.2253132 22
12.928052 6.4229803 -1.227933 20
12.890264 6.3058853 -1.2204227 29
12.928713 6.2266736 -1.2204227 17
12.911768 6.1211944 -1.2150956 26
12.929223 6.0325871 -1.2131743 17
12.990438 5.964365 -1.2155323 17
13.032238 5.8870053 -1.2160562 25
12.997108 5.7753758 -1.2092445 25
12.920026 5.6464467 -1.198503 27
13.026731 5.5981388 -1.205402 31
13.008532 5.4960032 -1.2004242 19
13.065928 5.4260149 -1.2026948 25
13.13218 5.3592935 -1.2058387 18
13.13338 5.2660089 -1.2028694 20
13.185835 5.1933565 -1.2047907 26
13.17936 5.0976171 -1.2012101 15
13.201077 5.0131173 -1.2003369 19
13.217587 4.9268031 -1.1990269 25
13.236342 4.8415022 -1.197979 16
13.243297 4.7521186 -1.195883 24
13.251534 4.6634941 -1.1939619 21
13.249764 4.5716977 -1.1911672 25
13.293609 4.4957385 -1.1926519 21
13.309596 4.4103255 -1.1916039 17
13.253026 4.3015108 -1.183919 20
13.269676 4.2170935 -1.1830456 24
13.366643 4.1577859 -1.1895953 24
13.339488 4.0597377 -1.1847923 25
13.282036 3.9533691 -1.1772819 14
13.322304 3.8765297 -1.1787665 20
13.323801 3.7884457 -1.1767579 27
13.352554 3.7082205 -1.1772819 25
13.326022 3.6129253 -1.1728281 17
13.372016 3.5374603 -1.1750113 30
13.347169 3.4433982 -1.1708195 20
13.390266 3.3670247 -1.1728281 19
13.341976 3.2679713 -1.1666276 19
13.3298 3.1784194 -1.1637458 25
13.316057 3.0889146 -1.1607766 19
13.386264 3.0187671 -1.165405 28
13.35588 2.9259133 -1.1610385 20
13.457378 2.8617301 -1.1685489 26
13.374194 2.7583745 -1.159554 35
13.384029 2.6748931 -1.1589427 29
13.388453 2.5904489 -1.1578947 20
13.361012 2.5001867 -1.1540523 23
13.465307 2.4342875 -1.1619992 51
13.532984 2.3608665 -1.166715 14
13.46666 2.2642384 -1.159554 26
13.502916 2.1852269 -1.1615626 34
13.489493 2.0981987 -1.1592046 24
13.519849 2.0180371 -1.1607766 27
13.609882 1.9461854 -1.1676756 29
13.58801 1.8580503 -1.1647065 32
13.584338 1.7727069 -1.1633965 23
13.679976 1.6998885 -1.1709068 22
13.611994 1.6066903 -1.1640078 25
13.655256 1.5269033 -1.1669769 25
13.695079 1.4463317 -1.1696842 28
13.606549 1.352613 -1.1611259 25
13.573925 1.2653072 -1.1575453 22
13.655866 1.1884754 -1.1640952 20
13.63212 1.1021726 -1.1613879 22
13.678363 1.0214753 -1.1648811 19
13.789721 0.94474787 -1.1741381 26
13.619276 0.84914052 -1.1586807 28
13.654068 0.76723576 -1.1613005 13
13.738113 0.68742663 -1.1682869 17
7.1417727 0.31324768 -0.58911693 497
7.1495333 0.26964632 -0.58964092 1140
7.1520486 0.225804 -0.58972824 1139
7.1483202 0.1817887 -0.58929163 1109
7.1473093 0.13788547 -0.58911693 1025
7.1510091 0.09406729 -0.58937895 863
7.1534438 0.050201844 -0.58955359 796
7.1516247 0.0063063228 -0.58937895 742
7.1604943 -0.037621941 -0.5901649 555
7.2946043 -0.08308138 -0.6019544 52
7.3975444 -0.12964848 -0.61103666 19
7.3976054 -0.17506003 -0.61112404 21
13.857741 -0.41267452 -1.1778059 17
13.859926 -0.49787492 -1.1782424 11
13.744142 -0.57818049 -1.1683743 14
13.751281 -0.66302949 -1.1693349 15
13.822552 -0.75150114 -1.175972 19
13.799782 -0.83521783 -1.1744 17
13.791415 -0.9196772 -1.1741381 19
13.875925 -1.0108664 -1.182085 17
13.83669 -1.0933998 -1.1792032 26
13.787039 -1.1746444 -1.1754479 28
13.826199 -1.2634773 -1.1795524 22
13.769604 -1.3435507 -1.1752733 21
13.641206 -1.415576 -1.1647065 22
13.717422 -1.5086131 -1.1722168 25
13.717802 -1.5939027 -1.1730901 26
13.719629 -1.6794958 -1.1741381 22
13.675472 -1.7593255 -1.1711688 30
13.65751 -1.8422714 -1.1705575 21
13.687378 -1.9318839 -1.1742253 27
13.641758 -2.0108933 -1.1712562 26
13.633101 -2.095165 -1.1716055 16
13.572772 -2.1712248 -1.1674136 23
13.719374 -2.2810929 -1.1816484 11
13.60008 -2.347106 -1.172304 31
13.61386 -2.4355972 -1.1748366 26
13.671144 -2.5325096 -1.1812991 34
13.622082 -2.6099739 -1.1783298 21
13.594084 -2.6911871 -1.1772819 20
13.5861 -2.7763429 -1.1780678 27
13.594152 -2.864994 -1.1803384 27
13.516934 -2.9354577 -1.1750113 18
13.512279 -3.0213838 -1.1762339 25
13.531347 -3.112946 -1.1796398 36
13.49842 -3.1927044 -1.1784172 21
13.428239 -3.2632382 -1.173876 29
13.420528 -3.3487058 -1.1750113 36
13.349546 -3.4181418 -1.1704701 27
13.380351 -3.5136502 -1.1751859 23
13.39317 -3.6050045 -1.1783298 22
13.360234 -3.6842029 -1.1773692 35
13.376684 -3.7772083 -1.1809497 37
13.336987 -3.8545134 -1.1794652 21
13.324548 -3.9396641 -1.180513 34
13.2534 -4.0072222 -1.1762339 21
13.248549 -4.0946445 -1.1780678 36
13.234575 -4.1794586 -1.1791158 33
13.275995 -4.2822967 -1.1853162 39
13.176613 -4.3396831 -1.1785918 24
13.306485 -4.4731393 -1.1930885 24
13.232615 -4.538866 -1.1888094 32
13.215799 -4.6239219 -1.1898574 33
13.232216 -4.7209921 -1.1940491 24
13.222659 -4.8092446 -1.195883 50
13.20411 -4.8944411 -1.196931 27
13.176626 -4.9764237 -1.197193 27
13.146772 -5.057538 -1.1972804 31
13.143319 -5.1490102 -1.1999003 38
13.16052 -5.2491179 -1.2045287 17
13.075451 -5.3084126 -1.1995509 29
13.085907 -5.4064188 -1.2036554 43
13.010242 -5.4688549 -1.1996382 31
13.030484 -5.5716872 -1.2047907 32
13.070048 -5.6837125 -1.2118644 35
12.991196 -5.7444654 -1.2076726 31
12.987505 -5.8383646 -1.2107291 30
12.946906 -5.9158745 -1.2102925 32
12.963672 -6.0199566 -1.2154449 22
12.966131 -6.1180906 -1.2192874 24
12.88433 -6.1764345 -1.2150083 15
12.851563 -6.2579918 -1.2155323 35
12.837926 -6.3490944 -1.2179775 18
12.796056 -6.4264054 -1.2177155 19
12.774133 -6.5138497 -1.219462 22
12.710038 -6.5797434 -1.2171042 19
12.750557 -6.7002368 -1.2251385 28
12.623063 -6.7324071 -1.2165802 16
12.66825 -6.8566751 -1.2252258 27
12.67833 -6.9630485 -1.2304657 22
12.632757 -7.0392556 -1.2302036 39
12.600601 -7.1230087 -1.2313389 18
12.560115 -7.2021728 -1.2316883 23
12.595773 -7.3256793 -1.2398099 13
12.525702 -7.3881516 -1.2372773 19
12.555367 -7.5098662 -1.2449623 16
12.506496 -7.5852137 -1.2447003 15
12.55561 -7.7207713 -1.2545686 9
12.490247 -7.7865992 -1.2527347 23
12.451497 -7.8689451 -1.2536952 16
12.463377 -7.9838848 -1.2599831 11
12.425016 -8.0672607 -1.2611183 16
12.406905 -8.164155 -1.2644368 19
12.32674 -8.220232 -1.2612929 19
12.375118 -8.3626423 -1.2717725 15
12.241377 -8.3821373 -1.2630396 12
12.287116 -8.524663 -1.2734318 23
12.229688 -8.5964584 -1.2729079 14
12.269218 -8.7372093 -1.2828634 18
12.203259 -8.8035851 -1.2815534 17
12.179575 -8.9006319 -1.2848719 18
12.168771 -9.0077934 -1.2896751 28
12.07023 -9.0500212 -1.2849593 15
11.995433 -9.1094532 -1.2828634 11
11.993798 -9.2247896 -1.2888892 15
12.091794 -9.4188004 -1.3060931 10
12.04003 -9.4977522 -1.3067917 28
12.008769 -9.5932112 -1.3098482 42
11.94271 -9.6610765 -1.3090622 32
11.914031 -9.7594233 -1.3125554 46
11.901464 -9.8717728 -1.3179699 33
11.848296 -9.9510193 -1.3188431 34
11.827995 -10.058379 -1.3235589 32
11.923835 -10.266609 -1.3418108 12
11.781769 -10.270847 -1.3326412 15
11.75139 -10.371949 -1.3364837 16
11.688271 -10.444523 -1.3365711 11
11.632829 -10.524064 -1.3376191 17
11.596686 -10.621484 -1.3410249 14
11.533487 -10.694471 -1.3412869 14
11.468376 -10.76572 -1.3413742 16
11.373219 -10.808436 -1.3378811 12
11.356219 -10.925673 -1.3439068 26
11.276122 -10.982636 -1.3423349 21
11.270236 -11.112467 -1.3499326 29
11.242028 -11.221524 -1.3549103 40
11.175065 -11.292417 -1.3551723 27
11.154312 -11.410638 -1.3612853 40
11.092391 -11.487463 -1.3623333 22
11.107645 -11.645413 -1.3732495 24
10.978597 -11.652446 -1.3659139 14
11.03652 -11.858871 -1.3825938 9
10.952086 -11.913898 -1.3811092 13
10.924316 -12.031025 -1.3870476 19
10.875566 -12.126009 -1.3903661 13
10.802279 -12.194003 -1.3905408 16
10.764646 -12.302788 -1.3955185 16
10.66355 -12.339212 -1.3921127 22
10.614155 -12.435475 -1.3956932 19
10.577461 -12.54759 -1.4011077 35
10.534692 -12.653597 -1.4058235 29
10.481527 -12.748008 -1.4092293 33
10.430739 -12.846107 -1.4130719 19
10.370418 -12.933183 -1.4156917 22
10.324261 -13.038744 -1.4204075 13
10.308492 -13.184247 -1.4295771 10
10.224965 -13.244096 -1.4292278 10
10.221417 -13.408784 -1.4404933 9
10.125771 -13.453738 -1.438572 14
10.047783 -13.522013 -1.4392707 5
10.009407 -13.644454 -1.4459077 11
9.983345 -13.785488 -1.4545534 10
9.8950949 -13.841623 -1.4540294 17
9.853056 -13.963122 -1.4605792 19
9.7888308 -14.054379 -1.4638977 20
9.7396564 -14.168357 -1.4696614 20
9.6698761 -14.253407 -1.4723686 12
9.6492977 -14.412633 -1.4829355 12
9.5606823 -14.471568 -1.4829355 13
9.5146847 -14.595885 -1.4898345 12
9.4114742 -14.633046 -1.4876513 13
9.3332529 -14.709023 -1.4895725 7
9.2465239 -14.771924 -1.4901838 4
9.1609449 -14.836858 -1.4910572 11
9.0935707 -14.931927 -1.4950743 14
9.0715389 -15.103582 -1.5069512 25
9.0086479 -15.209529 -1.5121036 27
8.9372616 -15.302368 -1.5159461 24
8.87253 -15.40785 -1.5210985 27
8.7842159 -15.473263 -1.5222338 17
8.7513809 -15.638142 -1.533412 9
8.646121 -15.674972 -1.5317527 6
8.5673828 -15.760111 -1.534984 11
8.4907475 -15.850142 -1.5387391 12
8.400773 -15.916037 -1.5401365 24
8.3208809 -16.001753 -1.5435423 12
8.2534227 -16.112797 -1.5494807 22
8.1656199 -16.185371 -1.5516639 18
8.0759058 -16.254797 -1.5535852 11
8.0018454 -16.356838 -1.5587376 17
7.9073834 -16.418194 -1.5599602 11
7.8478909 -16.553717 -1.5684313 14
7.7524896 -16.615099 -1.5697411 10
7.6711798 -16.707621 -1.5741076 20
7.5976381 -16.818832 -1.5803081 15
7.5125017 -16.906099 -1.5842378 18
7.428175 -16.996603 -1.588517 20
7.352067 -17.107759 -1.5948048 24
7.2733221 -17.214947 -1.6007432 19
7.1839862 -17.298811 -1.6044984 20
7.0976582 -17.391449 -1.6091268 10
7.0004525 -17.458712 -1.6113974 20
6.8910055 -17.495775 -1.6108733 18
3.1985908 -8.2700405 -0.73976052 11
3.083416 -8.120018 -0.72386652 64
3.0046535 -8.0613098 -0.71661818 72
2.8072906 -7.675437 -0.67889178 20
2.6962104 -7.5143681 -0.66229916 7
2.6321933 -7.4800272 -0.65758336 9
2.5725992 -7.4564862 -0.65391552 20
2.5121171 -7.4287224 -0.64989835 16
2.4570868 -7.4156284 -0.64727849 8
0 -0 -0 5
0 -0 -0 63
0 -0 -0 75
0 -0 -0 49
0 -0 -0 34
0 -0 -0 5
2.1350441 -7.5095015 -0.64684182 4
2.0894597 -7.5243802 -0.64701647 9
0 -0 -0 6
0 -0 -0 5
1.9650416 -7.6175117 -0.65208161 5
0 -0 -0 6
1.8775778 -7.6662092 -0.65435219 5
1.8277304 -7.665957 -0.65330422 7
0 -0 -0 5
0 -0 -0 6
0 -0 -0 3
0 -0 -0 10
0 -0 -0 6
0 -0 -0 6
0 -0 -0 5
1.4818151 -7.9197202 -0.66876155 5
0 -0 -0 5
0 -0 -0 5
0 -0 -0 5
0 -0 -0 5
0 -0 -0 6
0 -0 -0 5
0 -0 -0 6
0 -0 -0 6
0 -0 -0 5
1.0107081 -8.1350708 -0.68107504 6
0.96147406 -8.1470556 -0.68159902 4
0 -0 -0 5
0 -0 -0 5
0 -0 -0 5
0 -0 -0 7
0 -0 -0 5
0 -0 -0 6
0 -0 -0 6
0 -0 -0 7
0.5331527 -8.553587 -0.7137363 5
0 -0 -0 6
0.42984053 -8.5933132 -0.7167055 4
0.37828499 -8.6226606 -0.7190634 9
0.32555822 -8.629796 -0.71950006 11
0.27345094 -8.658515 -0.72185796 12
0.22123188 -8.6958809 -0.72500181 8
0 -0 -0 5
0.11381911 -8.6461439 -0.72046071 94
0.061646093 -8.7711992 -0.73137689 16
0.0078772679 -8.8262014 -0.73618001 11
-0.046429597 -8.8549728 -0.73871255 20
-0.10164245 -8.9322186 -0.74552429 11
-0.15684785 -8.9543352 -0.74753284 7
-0.21404493 -9.048811 -0.75591654 6
-0.27122226 -9.1030884 -0.76080698 10
-0 -0 -0 4
-0 -0 -0 5
-0 -0 -0 6
-0.51313519 -9.4358711 -0.79084837 18
-0.57788044 -9.5459023 -0.8008039 7
-0 -0 -0 6
-0.51279885 -7.0363369 -0.58090794 47
-0.55886585 -7.0698023 -0.58413917 171
-0.59589446 -6.991796 -0.57758945 47
-0.63289332 -6.9235249 -0.571913 57
-0.66849673 -6.8491168 -0.56571263 69
-0.70598662 -6.8012881 -0.5618701 79
-0.74574554 -6.7790041 -0.5602982 48
-0.78456801 -6.7505522 -0.55820227 55
-0.8227064 -6.7189136 -0.55584437 50
-0.86277366 -6.7048464 -0.55505842 44
-0.89990336 -6.6698093 -0.5524385 45
-0.93663573 -6.6345696 -0.54981863 44
-0.97645563 -6.6227846 -0.54929465 22
-1.0113249 -6.5792527 -0.5459761 33
-1.0471128 -6.5443969 -0.54344356 36
-1.086432 -6.5329351 -0.5430069 32
-1.127005 -6.5290909 -0.54326892 25
-1.1726586 -6.5534325 -0.54606348 20
-1.1986967 -6.4697113 -0.53925174 32
-1.2484927 -6.5150676 -0.54396755 22
-1.2752918 -6.4408336 -0.53802913 34
-1.3183776 -6.4504552 -0.53960109 31
-1.357932 -6.4422445 -0.53960109 37
-1.3982809 -6.437685 -0.53995037 45
-1.4507966 -6.4873147 -0.54519016 38
-1.4999539 -6.5190654 -0.54885799 33
-1.5298381 -6.4670839 -0.54501551 58
-1.5711371 -6.4643517 -0.54562682 90
-1.610772 -6.4545894 -0.54562682 126
-1.6612175 -6.4870467 -0.54946929 122
-1.7146513 -6.5287619 -0.55418509 136
-1.7707303 -6.5777588 -0.55959952 145
-1.8258858 -6.6205492 -0.56449002 128
-1.8856926 -6.677289 -0.57069039 100
-1.9374139 -6.7029166 -0.57409626 140
-1.9929094 -6.7396231 -0.57855004 132
-2.0506575 -6.781621 -0.58352786 110
-2.1172309 -6.8498106 -0.59095085 102
-2.1772184 -6.8936877 -0.59619063 86
-2.2258978 -6.9001083 -0.59802455 72
-2.3012233 -6.9866171 -0.60728151 34
-5.5037231 -16.372509 -1.4766477 59
-5.6024632 -16.333719 -1.4762112 94
-5.6877766 -16.256721 -1.4722813 46
-5.7609758 -16.147394 -1.4653822 51
-5.8415604 -16.061186 -1.4606664 66
-5.9476166 -16.045591 -1.4625877 67
-6.0765767 -16.089874 -1.4701854 74
-6.2020116 -16.122019 -1.4767351 80
-6.3484163 -16.20517 -1.4881753 56
-6.4661813 -16.212175 -1.4925418 65
-6.5966358 -16.248806 -1.4997901 68
-6.6829 -16.1758 -1.4967335 86
-6.739953 -16.034389 -1.4872147 35
-6.8421273 -16.00189 -1.488088 41
-6.9576631 -15.999804 -1.4919305 38
-7.0339518 -15.907612 -1.4872147 38
-7.120399 -15.839621 -1.4848567 65
-7.2414665 -15.848185 -1.4899219 65
-7.3192739 -15.761891 -1.4859047 83
-7.4086232 -15.701369 -1.4844201 60
-7.501811 -15.649326 -1.4838088 90
-7.5523381 -15.509854 -1.4747266 84
-7.6244001 -15.416788 -1.4701854 84
-7.7000756 -15.332326 -1.4665176 97
-7.7967229 -15.290115 -1.4670415 71
-7.8326931 -15.130518 -1.456038 80
-7.898046 -15.030144 -1.4508855 77
-8.0880938 -15.165109 -1.4691374 34
-8.4062166 -15.531343 -1.510619 33
-8.3210564 -15.151157 -1.4777831 34
-8.720789 -15.650661 -1.5330627 36
-8.8779306 -15.705259 -1.5439789 57
-8.9523268 -15.612465 -1.5401365 79
-8.9663229 -15.416874 -1.5259017 87
-9.1467848 -15.507437 -1.5407478 35
-9.346077 -15.625427 -1.558563 47
-9.29352 -15.323326 -1.5334994 39
-9.0215931 -14.671151 -1.4722813 34
-8.6566544 -13.885961 -1.3969158 41
-8.6113138 -13.626263 -1.3755201 41
-8.6340437 -13.478378 -1.3656518 37
-8.6444359 -13.314021 -1.354037 42
-8.6974926 -13.217456 -1.3494959 42
-4.563765 -6.8433213 -0.68352026 20
-4.6051111 -6.8143644 -0.68343294 59
-4.6507764 -6.7917337 -0.68404424 49
-8.5598688 -12.337863 -1.2788463 25
-8.6021862 -12.237838 -1.2737811 23
-8.6245317 -12.110982 -1.2658341 38
-8.6427317 -11.980276 -1.2574505 32
-8.6120472 -11.784656 -1.2419931 19
-8.6480417 -11.682749 -1.236666 18
-8.6341095 -11.515488 -1.2241778 15
-8.6467695 -11.38613 -1.2157942 28
-8.7110043 -11.325754 -1.2150083 13
-5.0211573 -6.4458227 -0.67871714 17
-5.0513592 -6.4031601 -0.67740721 18
-5.0719008 -6.3486948 -0.67478728 32
-5.095098 -6.2980924 -0.67260408 31
-3.9683645 -4.8440914 -0.51139361 89
-3.8778155 -4.6747327 -0.49488831 11
-3.8993788 -4.6424594 -0.49392769 14
-3.8897169 -4.5736709 -0.48877522 12
-3.8865087 -4.5134816 -0.48458341 13
-3.883364 -4.4542561 -0.48047891 8
-3.8704114 -4.3847837 -0.47515181 19
-3.8587453 -4.3178687 -0.47008669 20
-3.8584347 -4.2645607 -0.4665935 24
-3.8623257 -4.2165623 -0.46371162 19
-3.8691604 -4.1723304 -0.4612664 22
-3.8762803 -4.1289005 -0.4589085 21
-3.8782101 -4.0804863 -0.45593929 24
-3.8707139 -4.022872 -0.4518348 9
-3.8786442 -3.9819183 -0.44973889 16
-0 -0 -0 8
-3.8786581 -3.8853719 -0.44371316 9
-3.8854318 -3.8446822 -0.44161725 17
-3.8932776 -3.805449 -0.43969598 13
-3.898639 -3.7641888 -0.43751276 7
-3.9252665 -3.7436342 -0.43794939 15
-3.9394627 -3.7112811 -0.43690145 21
-3.9133029 -3.6415672 -0.43105036 151
-3.940707 -3.6222064 -0.43166167 187
-3.9761331 -3.610013 -0.43323359 207
-4.0130405 -3.598851 -0.43498018 187
-4.0581627 -3.5946376 -0.4376874 132
-4.0778933 -3.5677016 -0.4374254 4
-0 -0 -0 4
-0 -0 -0 4
-0 -0 -0 4
-4.2951331 -3.5755463 -0.45235878 5
-4.3377666 -3.5662072 -0.45471668 8
-4.3827667 -3.5583627 -0.45733657 5
-4.4324961 -3.5538387 -0.46048042 4
-0 -0 -0 5
-0 -0 -0 6
-4.5823188 -3.5373983 -0.46991202 13
-4.5904698 -3.4989481 -0.46842742 6
-0 -0 -0 4
-4.7585959 -3.5356379 -0.48213819 20
-4.8259835 -3.5399606 -0.48711598 125
-4.8589091 -3.5184629 -0.48833859 108
-4.9565825 -3.5430424 -0.49654755 7
-4.9985771 -3.526922 -0.49873081 6
-6.2716117 -4.3678861 -0.63243246 8
-6.2900853 -4.3236785 -0.63155913 9
-6.3057799 -4.2777309 -0.63042384 9
-6.27562 -4.2012715 -0.62448543 10
-6.304605 -4.1648827 -0.62483478 11
-6.2757983 -4.0907583 -0.61915833 13
-6.2588887 -4.025229 -0.61479187 14
-0 -0 -0 7
-5.6145735 -3.5141623 -0.54309422 75
-5.6470494 -3.4864497 -0.54422951 191
-5.6947107 -3.4677978 -0.54693675 88
-5.8935075 -3.5394819 -0.56510133 18
-5.9579692 -3.5286379 -0.56946778 14
-5.9812288 -3.4930189 -0.56964242 39
-6.0215411 -3.4671898 -0.57156372 137
-6.0634933 -3.4419811 -0.5736596 102
-6.1410031 -3.4363341 -0.57933605 92
-8.8843336 -4.9002895 -0.85189176 454
-8.8827267 -4.8285551 -0.84874791 440
-8.8823309 -4.7579665 -0.8457787 456
-8.8831663 -4.6884952 -0.84298414 442
-8.8879042 -4.6214914 -0.84062624 448
-8.887722 -4.5523357 -0.83783168 515
-8.8985891 -4.4891901 -0.8361724 530
-8.8938503 -4.4185476 -0.83302855 163
-8.8590508 -4.3336859 -0.82700282 78
-8.8747053 -4.2740588 -0.82595485 83
-8.8863611 -4.2126961 -0.8245576 89
-8.8966961 -4.1509299 -0.82307297 75
-8.8930283 -4.0829606 -0.82027841 67
-8.8797846 -4.0110922 -0.81661057 98
-8.8732777 -3.9427764 -0.81364137 65
-8.8781338 -3.8798788 -0.81180745 63
-8.8743162 -3.8135302 -0.80918759 59
-8.8755255 -3.7497013 -0.80709165 43
-8.8790464 -3.6871479 -0.80525774 57
-8.8830566 -3.6250689 -0.80351114 51
-8.8894138 -3.5641923 -0.80202657 55
-8.8870173 -3.5000885 -0.79975599 41
-8.8897448 -3.4383051 -0.7980094 47
-8.8967047 -3.3783886 -0.7966994 51
-8.8967314 -3.3160806 -0.79477817 55
-8.8944578 -3.2532156 -0.79268229 47
-8.890811 -3.1901667 -0.79049903 58
-8.885787 -3.126955 -0.78822845 40
-8.8840885 -3.0652249 -0.78630722 63
-8.8923492 -3.0071447 -0.78534657 41
-8.9002314 -2.9490786 -0.78438598 43
-8.8726788 -2.8796492 -0.78019416 200
-8.8740416 -2.8200238 -0.77870953 310
-8.8731041 -2.7598982 -0.77705026 299
-8.868906 -2.6990204 -0.77512902 268
-8.8642941 -2.6382983 -0.77320778 304
-8.8669252 -2.5799613 -0.77198517 316
-8.8682156 -2.521419 -0.77067518 338
-8.872961 -2.4640248 -0.76971459 383
-8.87253 -2.4053638 -0.76831728 408
-8.8746023 -2.3475654 -0.76718205 416
-8.8579731 -2.2851033 -0.76438749 222
-8.8901834 -2.2353251 -0.76604676 104
-8.9056664 -2.1812079 -0.7662214 65
-8.9217892 -2.1272159 -0.76648337 99
-8.9278812 -2.0708568 -0.76587206 93
-8.9297304 -2.0136266 -0.76491147 120
-8.9312134 -1.9564515 -0.76395082 110
-8.9420757 -1.9014065 -0.7638635 114
-8.9438171 -1.8444906 -0.76299018 132
-8.9422674 -1.7870394 -0.76185495 119
-8.9462185 -1.7308121 -0.76124364 132
-9.0594835 -1.6951288 -0.77041322 58
-9.4402609 -1.7065085 -0.80342382 100
-9.4495735 -1.6483809 -0.8033365 120
-9.4575453 -1.5900379 -0.8031618 143
-9.4582729 -1.530545 -0.80237585 147
-9.4615803 -1.4715625 -0.80185187 121
-9.4645195 -1.4125971 -0.80132788 136
-9.4592028 -1.3525226 -0.80010527 120
-9.4614019 -1.2936467 -0.79958129 116
-9.4632349 -1.2347946 -0.7990573 139
-9.4607468 -1.1754774 -0.79818404 160
-9.4578886 -1.1162372 -0.79731077 131
-9.4605999 -1.0577407 -0.79696143 165
-9.4560146 -0.99852049 -0.79600078 165
-9.4540329 -0.93969208 -0.79530215 172
-9.4576368 -0.88148057 -0.79512751 177
-9.4628677 -0.82343298 -0.79512751 156
-9.4607916 -0.76479226 -0.79451621 214
-9.4613323 -0.70643067 -0.79416686 187
-9.4664831 -0.64843184 -0.79425418 206
-5.5897369 -0.34827346 -0.45340675 66
-4.5613542 -0.25603846 -0.36293325 55
-4.5429406 -0.22704941 -0.36118668 25
-4.5352912 -0.19877681 -0.36040071 13
-4.5374207 -0.17098264 -0.36048803 12
-4.5344019 -0.14301236 -0.36013871 11
-4.3137503 0.3171297 -0.39549747 52
-4.3018045 0.34279934 -0.39450079 55
-4.2976375 0.36901745 -0.39430147 61
-4.2992558 0.3957462 -0.39470014 27
-4.2759519 0.42006993 -0.39260712 16
-4.2564702 0.44453716 -0.3909128 19
-4.1626787 0.46055406 -0.38174343 13
-4.0095582 0.46849144 -0.36659402 13
-3.9187176 0.48224258 -0.35772365 10
-3.872267 0.5006516 -0.3533383 20
-3.8346133 0.5197143 -0.34984994 12
-3.8293819 0.54295331 -0.34965062 11
-3.8338523 0.56760794 -0.35044795 10
-3.9463308 0.60906416 -0.36220866 5
-4.5525784 0.73143989 -0.42410192 6
-4.5588002 0.7611655 -0.42519826 5
-4.5618868 0.79048449 -0.42599559 7
-4.5833921 0.82321674 -0.42868662 10
-4.5890145 0.85332805 -0.42978296 7
-4.6051879 0.88560891 -0.43197563 21
-4.6074743 0.91540223 -0.43277296 51
-9.4781351 1.9448792 -0.93140739 188
-9.4815979 2.0062969 -0.93300205 153
-9.4875803 2.0684664 -0.93489575 156
-9.4873304 2.1294765 -0.93619138 139
-9.4876585 2.1907854 -0.93758672 117
-9.4827499 2.2510288 -0.93848377 138
-9.48036 2.3120019 -0.93967974 117
-9.4833689 2.374481 -0.94147378 151
-9.4830761 2.4363408 -0.94296879 155
-9.4843044 2.4987934 -0.94466311 117
-9.4870453 2.5618718 -0.94655681 137
-9.4826546 2.62322 -0.94775277 125
-9.4826546 2.6859667 -0.9494471 128
-9.4870195 2.7501981 -0.95163977 124
-9.4842749 2.8126028 -0.95313483 109
-9.4801693 2.8747883 -0.95453012 107
-9.478508 2.9379132 -0.9562245 87
-9.4821196 3.002929 -0.95851684 110
-9.4748755 3.0647297 -0.95971286 106
-9.4795122 3.1306124 -0.96220452 119
-9.474268 3.1934876 -0.96369952 78
-9.4469671 3.2489707 -0.96290219 72
-9.3282709 3.27228 -0.95243716 73
-9.1899738 3.2872162 -0.93987906 70
-8.9873505 3.2770526 -0.92044401 117
-8.9708042 3.3335233 -0.92084265 125
-8.964139 3.3937905 -0.92233765 118
-8.970068 3.4591153 -0.925228 159
-8.9773846 3.5253675 -0.92831773 178
-8.9694424 3.5859277 -0.92981273 187
-8.9620161 3.646898 -0.93140739 141
-8.9532595 3.7075312 -0.9329024 149
-8.9055853 3.7519641 -0.93021137 94
-8.897028 3.8128099 -0.93180603 68
-8.8944445 3.8764753 -0.93409842 68
-8.8905039 3.9398489 -0.9362911 76
-8.8924694 4.0061817 -0.93918139 74
-8.8966684 4.0739293 -0.94237077 69
-8.9012728 4.1422987 -0.94565976 64
-8.8999739 4.2083254 -0.94835079 62
-8.8990965 4.2749219 -0.95114148 79
-8.9004183 4.3429751 -0.95423114 71
-8.9056969 4.413415 -0.95781916 59
-8.8988905 4.4782662 -0.9601115 67
-8.9057989 4.5504451 -0.9639985 66
-8.9139223 4.6237931 -0.96808487 56
-8.9117947 4.6923113 -0.97107488 77
-8.9038954 4.7581625 -0.97346687 54
-8.8963985 4.8245673 -0.97595859 60
-8.8910351 4.892498 -0.97874928 67
-8.9277411 4.9843163 -0.98642361 382
-8.9160357 5.0497923 -0.98861629 336
-8.914216 5.1212611 -0.99200499 316
-8.9152918 5.194901 -0.99579233 341
-8.9149418 5.26824 -0.99948001 378
-8.9123192 5.3407469 -1.0029683 383
-8.9235964 5.422204 -1.0081511 343
-8.9130297 5.4909501 -1.0108421 320
-8.94415 5.5861292 -1.0185164 53
-8.9256773 5.6510191 -1.0204101 59
-8.906745 5.7158918 -1.0223038 43
-8.8906879 5.7829156 -1.0245961 48
-8.9381075 5.8921328 -1.0345628 313
-8.9208136 5.9595799 -1.0368551 247
-8.9022045 6.0264783 -1.0390478 293
-7.1182756 4.8825035 -0.82685661 87
-7.017921 4.8772445 -0.81828523 12
-6.9829817 4.9167762 -0.81768721 10
-6.9397221 4.9502831 -0.81609255 16
-6.9051852 4.9898567 -0.81559426 14
-6.6424236 4.8622479 -0.78679043 35
-8.8837776 6.5875106 -1.0700443 32
-8.9283133 6.7058444 -1.0807086 285
-8.9170895 6.7833967 -1.084496 194
-7.1035399 5.4726362 -0.86044443 33
-7.058845 5.5075493 -0.85904908 29
-7.0061831 5.5359502 -0.85665709 28
-8.9732132 7.1805019 -1.1133995 25
-8.9189367 7.2272806 -1.1121038 207
-6.2623973 5.1381407 -0.77363437 9
-8.9221716 7.4131365 -1.1241635 18
-8.9031649 7.4901648 -1.1276519 30
-8.9100561 7.5898237 -1.1346285 13
-6.2549629 5.3942699 -0.78958112 8
-0 0 -0 6
-5.4138336 4.7857819 -0.68602705 6
-5.4251399 4.8554134 -0.69150871 8
-5.4704447 4.9567699 -0.70167476 4
-5.4685202 5.0164795 -0.70556176 6
-5.5105357 5.117662 -0.71552849 11
-5.4993258 5.170465 -0.71831918 7
-5.5107341 5.2452784 -0.72429919 5
-5.496356 5.2962561 -0.72679085 5
-8.8842211 8.6675558 -1.2054919 109
-8.8648491 8.7554703 -1.2102759 250
-8.858099 8.8568401 -1.2169536 239
-8.8721123 8.9804001 -1.2267209 278
-8.8439436 9.0624447 -1.230608 254
-8.8434105 9.1738539 -1.2385813 131
-5.3846269 5.654211 -0.74433225 7
-5.3464236 5.6835198 -0.74383396 8
-5.3033233 5.7074695 -0.74263793 13
-9.4961872 10.347829 -1.3690455 134
-9.4906492 10.470045 -1.3777165 137
-9.4819756 10.590356 -1.3860886 189
-9.4998617 10.74226 -1.3986467 128
-9.47435 10.846813 -1.404826 144
-9.5044527 11.017007 -1.4196764 138
-9.4928131 11.141014 -1.4283475 150
-9.5043507 11.294223 -1.4408058 162
-9.4959202 11.425796 -1.4503739 149
-9.5007486 11.575377 -1.4622343 160
-9.4890614 11.706894 -1.4717027 144
-9.4966316 11.864336 -1.48446 131
-9.493988 12.011378 -1.4958221 120
-9.4990759 12.170598 -1.5086792 155
-9.4885969 12.312201 -1.5192438 124
-9.4936037 12.476303 -1.5325992 134
-9.4939632 12.636949 -1.5454563 117
-9.5051537 12.814847 -1.5604063 132
-9.5039339 12.978904 -1.5735624 135
-9.5010557 13.143424 -1.5867184 117
-9.5126953 13.331073 -1.6026652 107
-9.5029058 13.491695 -1.6152233 94
-9.5074034 13.675572 -1.630572 119
-9.4976158 13.841956 -1.643728 124
-9.5145912 14.050753 -1.6619672 113
-9.5144329 14.237933 -1.6775151 103
-9.5013781 14.409022 -1.6910698 101
-9.4572802 14.535444 -1.6992426 147
-9.3577023 14.577289 -1.697349 181
-9.2249641 14.566339 -1.6892759 166
-9.1132727 14.587224 -1.6850898 155
-9.0256834 14.646255 -1.6854886 163
-8.9955893 14.799997 -1.69705 141
-8.9184198 14.877958 -1.6997409 94
-8.6948242 14.70883 -1.6737279 152
-8.7161341 14.953612 -1.6959536 98
-8.6846952 15.112066 -1.708113 65
-8.7085266 15.371122 -1.7318337 69
-8.7033072 15.584119 -1.7501725 58
-8.684763 15.777575 -1.7662189 75
-8.6584759 15.960889 -1.7810693 70
-8.6827955 16.242754 -1.8070824 41
-8.6909962 16.500858 -1.8303049 18
-8.6409063 16.652796 -1.8414675 12
-8.6132765 16.851696 -1.8579125 17
-8.6416836 17.166422 -1.8873144 19
-8.7748108 17.700541 -1.9411346 16
-8.7035685 17.83095 -1.949706 21
-8.6728535 18.048147 -1.9679451 6
-8.6312904 18.247641 -1.9841908 8
-8.7316217 18.756716 -2.0346224 34
-8.6681604 18.923019 -2.0470808 35
-8.6062555 19.096504 -2.0603364 28
-8.602623 19.405478 -2.0884426 20
-8.5879631 19.697786 -2.114655 10
-8.6558876 20.190922 -2.1626945 23
-8.7099619 20.666359 -2.2086411 14
-8.711688 21.030132 -2.2423286 25
-8.7088976 21.393772 -2.2759163 33
-8.3203278 20.803778 -2.206548 9
-2.6970127 6.863235 -0.70087743 50
-2.6523433 6.8731561 -0.70017976 263
-2.6023681 6.8688293 -0.69798708 397
-2.5487328 6.8538895 -0.69469804 101
-2.528791 6.9301605 -0.7011764 15
-2.471472 6.9043245 -0.69679105 50
-2.4277437 6.9156032 -0.69639242 44
-2.3749073 6.9002604 -0.69320303 20
-2.3213971 6.8817024 -0.68971473 21
-2.2663321 6.8570795 -0.68562835 23
-2.21472 6.8415084 -0.68253869 16
-2.1681924 6.8407407 -0.68104368 15
-2.114686 6.8168502 -0.67715663 4
-2.0733964 6.8316016 -0.677356 6
-2.0283267 6.8337021 -0.67625964 4
-0 0 -0 3
-0 0 -0 3
-0 0 -0 5
-0 0 -0 3
-1.8192712 6.8984776 -0.67685765 6
-0 0 -0 3
-0 0 -0 4
-0 0 -0 4
-1.6363227 6.8858652 -0.67117661 6
-1.5913537 6.8841419 -0.66998065 4
-0 0 -0 4
-0 0 -0 5
-1.4563333 6.8743029 -0.66609359 7
-1.4117249 6.8714128 -0.66489762 5
-1.3689538 6.877018 -0.66459858 11
-1.3256029 6.879426 -0.66400057 6
-1.2866445 6.9050379 -0.66579461 34
-1.2437234 6.9098649 -0.66549557 92
-1.1933076 6.8712883 -0.66081125 197
-1.1514519 6.880444 -0.66101056 150
-1.1093707 6.8883619 -0.66111028 150
-1.0670836 6.8950391 -0.66111028 131
-1.0237346 6.894567 -0.66041261 92
-0.98309022 6.9125404 -0.66160858 54
-0.96154386 7.0722542 -0.67715663 10
-0 0 -0 4
-0 0 -0 4
-0 0 -0 4
-0 0 -0 4
-0 0 -0 3
-0 0 -0 6
-0 0 -0 5
-0 0 -0 6
-0 0 -0 5
-0 0 -0 5
-0 0 -0 4
-0.97279346 15.820839 -1.5499413 4
-0 0 -0 4
-0.77623171 15.783881 -1.5451573 5
-0.67872846 15.773436 -1.5436623 14
-0.58182192 15.774321 -1.5433633 17
-0.48502153 15.777594 -1.5433633 15
-0.38820291 15.780272 -1.5433633 20
-0.29147944 15.788326 -1.5439613 8
-0.19464736 15.793797 -1.5443599 6
-0 0 -0 4
0 0 -0 4
0 0 -0 4
0 0 -0 4
0 0 -0 3
0.53873396 21.973442 -2.1638906 40
0.64905423 21.172092 -2.0839574 46
0.78664714 21.376524 -2.1048877 10
0.79289198 18.466528 -1.8136604 5
0 0 -0 6
0.936867 16.962173 -1.6638608 19
1.0115684 16.478401 -1.6159209 8
0 0 -0 5
0 0 -0 16
0 0 -0 19
1.3638313 15.846865 -1.555423 19
1.4552773 15.775777 -1.5491439 47
1.5487316 15.732882 -1.5457553 78
0 0 -0 59
0 0 -0 28
0 0 -0 23
0 0 -0 14
0 0 -0 11
2.13815 15.749024 -1.554227 8
2.2361438 15.74546 -1.5552237 7
2.3363645 15.756049 -1.5577153 13
2.4328458 15.740434 -1.5576156 6
2.5303299 15.731104 -1.5582137 5
0 0 -0 6
0 0 -0 3
3.7678201 20.954445 -2.0948212 27
3.8955948 20.927019 -2.0944226 42
4.0259967 20.913469 -2.0955188 30
3.887495 19.547491 -1.9585763 31
3.9675381 19.329306 -1.9387426 9
4.0881267 19.314333 -1.9397392 8
4.533361 20.786982 -2.0933263 13
3.2457979 14.458027 -1.4464868 273
3.2887566 14.240065 -1.4261547 896
3.3291647 14.022126 -1.4058228 480
3.370326 13.81777 -1.386886 90
3.4284496 13.690658 -1.3759226 176
3.4992609 13.618288 -1.3706403 185
3.575654 13.56962 -1.3678496 167
3.7001114 13.700157 -1.3836966 6
3.7039518 13.387587 -1.3535972 266
3.7860267 13.364608 -1.3535972 291
3.8723936 13.356416 -1.3551918 209
3.9885187 13.447828 -1.3672515 23
4.0761576 13.440241 -1.3690455 19
4.1644425 13.433985 -1.3710389 15
4.2570109 13.440431 -1.3744276 18
4.3461394 13.434884 -1.3766203 11
4.4509664 13.475988 -1.3837963 33
4.5179911 13.402225 -1.3789126 12
4.6134129 13.412827 -1.3829989 24
4.716712 13.444356 -1.3893776 36
4.8155427 13.461067 -1.3942614 210
4.9062309 13.453701 -1.3966533 224
4.9845285 13.412151 -1.3954573 215
5.0469947 13.329206 -1.389876 233
5.1071987 13.242287 -1.383896 248
5.1778049 13.183842 -1.3810056 253
5.2430835 13.113021 -1.3768196 252
5.3031869 13.030837 -1.3714375 231
5.3651452 12.954846 -1.3667532 273
5.4240527 12.873086 -1.3614708 258
5.4856882 12.799323 -1.3570855 250
5.549407 12.731674 -1.3533978 230
6.0278435 13.600666 -1.4523672 254
6.1066847 13.553445 -1.4512709 172
5.9075422 12.899666 -1.3833976 304
5.9861622 12.862272 -1.3832979 319
6.0785851 12.854083 -1.3864872 346
6.1788898 12.861386 -1.3914707 288
6.2952242 12.900131 -1.4000421 169
6.7852545 13.690352 -1.4927324 164
6.9304218 13.770223 -1.5063868 19
7.0279164 13.753134 -1.5092771 13
7.1277528 13.739781 -1.5126659 18
7.2272253 13.72484 -1.5159549 21
7.3403859 13.734642 -1.5221342 28
7.4221497 13.684971 -1.5216359 20
7.5170145 13.659221 -1.5239282 25
8.5961952 15.395489 -1.7284451 24
8.6694078 15.305226 -1.7241594 21
8.7527447 15.233627 -1.7220664 29
8.8209991 15.136651 -1.717083 27
8.8777618 15.021425 -1.7100066 30
8.940094 14.91717 -1.7042259 36
8.9802933 14.777855 -1.6943589 23
9.0478315 14.685202 -1.6899736 31
9.112463 14.588902 -1.6851895 28
9.1874342 14.510017 -1.6824986 21
9.2381306 14.393919 -1.6754222 28
9.3007727 14.297765 -1.6707379 35
9.3713474 14.214675 -1.6676481 29
9.3715973 14.027018 -1.6520004 28
9.4530258 13.962659 -1.651203 29
9.5115004 13.865011 -1.646419 15
9.5180178 13.693643 -1.632665 23
9.5548782 13.568275 -1.6244923 24
9.6067429 13.465654 -1.6191102 20
9.6308956 13.325814 -1.6091435 19
9.6754465 13.215892 -1.6028645 20
9.7421293 13.137094 -1.6004726 27
9.7741451 13.012632 -1.5923995 28
9.8297043 12.920739 -1.5884128 32
9.8808613 12.823928 -1.5838281 26
9.9348736 12.731682 -1.5798414 30
9.9393854 12.577587 -1.567981 24
10.01202 12.510925 -1.5672834 24
10.049127 12.400558 -1.5610044 38
10.060638 12.260211 -1.5508384 21
10.114054 12.172231 -1.5474496 25
10.151394 12.065785 -1.5416689 27
10.201361 11.975246 -1.5379813 20
10.24085 11.873249 -1.5327985 37
10.261147 11.750235 -1.5248252 23
10.294822 11.64382 -1.5190445 19
10.348817 11.561158 -1.5164531 19
10.353405 11.424454 -1.5065861 26
10.393709 11.328453 -1.5022007 31
10.421713 11.219997 -1.496121 38
10.433099 11.094954 -1.4877491 26
10.436484 10.96299 -1.4783803 26
10.484221 10.878688 -1.4755896 43
10.500045 10.762166 -1.4683139 23
10.500851 10.631703 -1.4590449 21
10.527893 10.529078 -1.4536629 34
10.55195 10.424426 -1.4479818 28
10.607881 10.35184 -1.4468856 32
10.637526 10.254104 -1.4422011 26
10.68583 10.174918 -1.4402078 34
10.706745 10.070305 -1.4345268 27
10.715844 9.9556618 -1.4273508 24
10.750336 9.8655052 -1.4237628 33
10.787074 9.7779751 -1.4205735 26
10.822402 9.6897011 -1.4172844 19
10.857055 9.6013641 -1.4139954 26
10.91876 9.5371838 -1.414394 17
10.882139 9.3881197 -1.401836 30
10.891064 9.2798738 -1.3954573 22
10.953128 9.2173576 -1.396155 19
10.975806 9.1219959 -1.3917696 16
11.073107 9.0885639 -1.3971517 20
11.055226 8.9609337 -1.3876833 28
11.028431 8.8276491 -1.3772182 19
11.137815 8.8036175 -1.3842946 35
11.123378 8.6818542 -1.3756236 22
11.164617 8.6043291 -1.3741286 26
11.191861 8.5163832 -1.3709393 18
11.176283 8.3967543 -1.3624675 26
11.16046 8.2782316 -1.3540955 25
11.203818 8.2043066 -1.3531985 34
11.218465 8.1097603 -1.3488132 27
11.257484 8.0332594 -1.3475175 23
11.271582 7.9393983 -1.3432318 21
11.259624 7.8280616 -1.3358564 21
11.29842 7.7526345 -1.3347601 29
11.325178 7.6692166 -1.3322684 29
11.356302 7.5890794 -1.3303747 18
11.38604 7.5083013 -1.3283814 24
11.451913 7.4513187 -1.3307734 26
11.471459 7.3642497 -1.3276837 18
11.482803 7.2724309 -1.323697 20
11.467293 7.1644092 -1.3166207 21
11.487317 7.0792975 -1.31383 36
11.53479 7.0112634 -1.3143283 23
11.525532 6.909152 -1.3082486 26
11.565995 6.8372903 -1.3080493 22
11.605151 6.7646909 -1.3077503 23
11.616244 6.6760049 -1.3042619 23
11.669975 6.6119599 -1.3057569 10
11.665151 6.5150042 -1.3005743 11
11.540152 6.3526301 -1.2817372 25
11.588534 6.2869201 -1.2828336 20
11.616362 6.2100677 -1.2816375 30
11.669214 6.1465559 -1.2833319 36
11.681095 6.0615506 -1.2804415 21
11.725157 5.9933848 -1.2812388 29
11.79104 5.9360905 -1.2845279 17
11.837939 5.8689332 -1.2857239 32
11.835277 5.7774205 -1.2814382 21
11.851669 5.6956429 -1.2793452 20
11.886395 5.6228151 -1.2793452 16
11.899923 5.5401182 -1.2770529 21
11.899316 5.4512529 -1.2732655 20
11.848173 5.3401208 -1.2639965 24
11.968954 5.3064322 -1.2736641 18
11.95477 5.2126141 -1.2685812 27
11.938058 5.1183863 -1.2632987 12
11.888549 5.0110369 -1.254528 24
11.865753 4.9159117 -1.2487473 15
11.954677 4.8670192 -1.2551261 19
11.936273 4.774364 -1.2499434 15
11.971826 4.7035809 -1.2506411 23
12.081228 4.6611876 -1.259312 36
12.069588 4.5718188 -1.2550265 28
12.127259 4.5087681 -1.2582158 7
12.111695 4.4185891 -1.2536311 25
11.973692 4.2851958 -1.2360897 24
12.065483 4.2347069 -1.2430663 19
12.149575 4.1806622 -1.2492458 21
12.110884 4.0844183 -1.2424684 25
12.136662 4.0103426 -1.242568 21
12.15536 3.9339602 -1.2419701 22
12.190652 3.8629081 -1.243166 15
12.137143 3.7641678 -1.235093 21
12.284747 3.7274601 -1.2481494 18
12.249197 3.6347508 -1.2420697 29
12.242599 3.5512094 -1.2390797 28
12.280434 3.4806347 -1.240774 21
12.258405 3.3932765 -1.236289 25
12.290522 3.32111 -1.2374851 35
12.253901 3.2306733 -1.2316047 29
12.258074 3.1514614 -1.2300099 28
12.244363 3.0679684 -1.2266213 22
12.261991 2.9925449 -1.2265216 32
12.322718 2.9273653 -1.230907 30
12.315241 2.8458769 -1.2283156 21
12.377131 2.7802861 -1.2329003 30
12.385207 2.7023807 -1.2320033 25
12.377219 2.6211841 -1.2295116 29
12.318018 2.5297832 -1.2218373 29
12.327454 2.4529891 -1.2212392 22
12.335433 2.3759866 -1.2205416 24
12.392821 2.3082657 -1.2249269 26
12.325468 2.2175648 -1.2166545 26
12.43786 2.1590745 -1.2267209 21
12.379231 2.0707395 -1.2194452 27
12.422159 1.9996423 -1.2225349 30
12.386994 1.916087 -1.2177509 41
12.491037 1.8537678 -1.2271196 26
12.431248 1.7670139 -1.2199436 38
12.481295 1.6960595 -1.2239302 33
12.446074 1.6135633 -1.2193456 25
12.445866 1.5359474 -1.2183489 35
12.43529 1.4572377 -1.2163556 22
12.443009 1.3807992 -1.2162559 35
12.504686 1.3100177 -1.221638 35
12.567942 1.2387261 -1.2272193 32
12.532701 1.1576558 -1.2229337 32
12.587153 1.0848316 -1.2277176 21
12.52216 1.0018709 -1.2205416 24
12.562802 0.92757869 -1.2240299 17
12.589106 0.85188609 -1.226123 19
12.588137 0.77425879 -1.2255249 21
12.437663 0.68844068 -1.2099769 28
12.499295 0.61494213 -1.2157576 21
12.561485 0.54075581 -1.221638 21
7.1354299 0.26382145 -0.67745566 415
7.1349254 0.21997331 -0.67725635 961
7.1361408 0.17619009 -0.67725635 935
7.1400719 0.13245513 -0.67755532 937
7.2501945 0.089982733 -0.6885187 87
7.3879204 0.046334222 -0.70227277 42
7.3771205 0.0010021616 -0.7011764 49
7.3740025 -0.044244636 -0.70087743 49
7.3725972 -0.089477599 -0.70077777 50
7.3699198 -0.13467665 -0.70057839 45
7.370944 -0.17994398 -0.70077777 49
12.638838 -0.38698873 -1.228814 16
12.689919 -0.46651074 -1.2341959 25
12.630155 -0.5419293 -1.2285149 19
12.713054 -0.62366581 -1.237186 27
12.722897 -0.70242912 -1.2385813 23
12.674649 -0.77779645 -1.2341959 18
12.665667 -0.8552835 -1.2337973 16
12.657204 -0.9327628 -1.2334983 19
12.65025 -1.0103291 -1.2333987 18
12.639848 -1.087589 -1.2329999 12
12.579432 -1.1601856 -1.227618 19
12.646344 -1.244666 -1.235093 25
12.600863 -1.3183013 -1.2313056 16
12.620228 -1.3986654 -1.2340963 22
12.58176 -1.4726025 -1.2311063 16
12.586313 -1.5514805 -1.2325016 25
12.608133 -1.6327717 -1.235691 20
12.570271 -1.7063529 -1.2329003 28
12.60488 -1.7898896 -1.2374851 24
12.544448 -1.8598969 -1.2325016 18
12.508216 -1.9330317 -1.2300099 22
12.55801 -2.0197039 -1.236289 36
12.49533 -2.0883505 -1.2312059 31
12.53522 -2.1741683 -1.236588 20
12.486389 -2.2447009 -1.2329999 22
12.475315 -2.32182 -1.233299 37
12.437385 -2.3938079 -1.230907 26
12.461498 -2.4778428 -1.2348937 30
12.448009 -2.5546587 -1.235093 33
12.455462 -2.6359365 -1.2374851 29
12.422527 -2.7087071 -1.2357906 32
12.433827 -2.7912023 -1.238681 25
12.399016 -2.8634105 -1.236887 33
12.420905 -2.9488626 -1.2409734 36
12.357144 -3.0139346 -1.236289 34
12.364479 -3.0962284 -1.2389801 26
12.319228 -3.1653488 -1.236289 32
12.314006 -3.244683 -1.237784 39
12.328446 -3.3295217 -1.241372 34
12.319292 -3.4082899 -1.242568 28
12.223476 -3.4626553 -1.234794 24
12.279407 -3.5600414 -1.242867 32
12.198189 -3.6177726 -1.2366877 25
12.222417 -3.7067053 -1.2415713 32
12.300183 -3.8128688 -1.2521361 31
12.237665 -3.8759482 -1.2480497 29
12.269507 -3.969038 -1.2539301 33
12.249647 -4.0458083 -1.2544284 24
12.263249 -4.1339297 -1.2585148 33
12.261175 -4.2171903 -1.2610065 40
12.253846 -4.298934 -1.2629998 40
12.272206 -4.3901324 -1.2677838 45
12.246907 -4.4660325 -1.2679831 36
12.246321 -4.5511484 -1.2708734 48
12.219095 -4.6265574 -1.2709731 36
12.199761 -4.7050261 -1.2719698 43
12.121577 -4.7605119 -1.2666874 34
12.159582 -4.8617716 -1.2739631 39
12.060403 -4.9081535 -1.2664881 36
12.02914 -4.9816818 -1.2663884 37
12.013934 -5.0619664 -1.2680827 30
11.924119 -5.110496 -1.2617041 40
11.916252 -5.1939039 -1.2642955 39
11.921453 -5.2834558 -1.2683818 42
11.901511 -5.3622284 -1.2697772 27
11.841246 -5.4227228 -1.2667872 42
11.929529 -5.5519662 -1.2802422 28
11.89254 -5.6237836 -1.2799432 28
11.8605 -5.6979418 -1.2802422 21
11.846775 -5.7810841 -1.2826341 27
11.810189 -5.8532238 -1.2825345 28
11.745611 -5.911263 -1.2793452 40
11.711778 -5.98458 -1.2796441 36
11.745493 -6.0929904 -1.2876176 30
11.682355 -6.1514983 -1.2847272 29
11.659308 -6.2310381 -1.2864215 36
11.67071 -6.3295045 -1.2921026 33
11.568891 -6.3664498 -1.2849265 39
11.626907 -6.4916511 -1.2960893 41
11.583393 -6.5609083 -1.2956905 26
11.586054 -6.6566472 -1.300674 19
11.439254 -6.6659837 -1.2884148 30
11.474371 -6.7811103 -1.2972852 18
11.457297 -6.8662233 -1.3001755 30
11.426004 -6.9431129 -1.3014712 20
11.418766 -7.0350146 -1.3056573 22
11.386355 -7.1117997 -1.306953 26
11.354273 -7.1889844 -1.3083483 31
11.352654 -7.2859302 -1.3134313 23
11.316074 -7.3608775 -1.314428 26
11.264881 -7.4263391 -1.3137304 20
11.175254 -7.4660196 -1.308448 27
11.276712 -7.6343112 -1.3262883 18
11.16402 -7.6583257 -1.318315 19
11.172375 -7.7653036 -1.3250923 15
11.145669 -7.8486066 -1.3276837 24
11.186398 -7.9804206 -1.3386471 10
11.090448 -8.0151005 -1.3328664 16
11.020989 -8.0683041 -1.3303747 18
11.048798 -8.1932726 -1.3400425 32
11.034116 -8.2878065 -1.3445275 17
10.973553 -8.3481236 -1.3433315 19
10.939463 -8.4286613 -1.3455241 21
10.896168 -8.5023603 -1.3466204 11
10.826619 -8.5554838 -1.3444278 20
10.851604 -8.6839304 -1.3543944 16
10.862275 -8.802352 -1.3626668 20
10.760373 -8.8296986 -1.3564875 18
10.786345 -8.9623318 -1.3669525 23
10.763126 -9.055254 -1.3711386 16
10.737658 -9.1469374 -1.3751253 20
10.713729 -9.2405977 -1.379411 17
10.626101 -9.2793255 -1.3753246 9
10.603998 -9.37533 -1.3800089 13
10.616699 -9.5032701 -1.3894773 22
10.542706 -9.5542011 -1.3873843 21
10.41277 -9.5534534 -1.3777165 8
10.433415 -9.6909838 -1.3885803 16
10.37883 -9.7595911 -1.3892779 15
10.343252 -9.8464184 -1.3926667 14
10.365744 -9.9898005 -1.404228 14
10.314935 -10.063639 -1.405723 15
10.272811 -10.14632 -1.4085137 17
10.228654 -10.227455 -1.411105 48
10.158015 -10.282238 -1.4100087 41
10.114885 -10.365026 -1.412899 42
10.053858 -10.42976 -1.4132978 39
10.016431 -10.519359 -1.4171847 36
9.9598761 -10.589319 -1.4183807 44
9.9292507 -10.687412 -1.4234638 24
9.8816509 -10.767931 -1.4261547 13
9.8574905 -10.874809 -1.4324338 17
9.7494316 -10.889125 -1.4262545 14
9.687706 -10.954704 -1.4270518 18
9.6602325 -11.059657 -1.4331315 16
9.6597795 -11.197083 -1.4434968 15
9.6121874 -11.281138 -1.4467859 14
9.5690517 -11.371121 -1.4508722 16
9.5251732 -11.460999 -1.4549586 12
9.4300528 -11.48923 -1.4510715 33
9.4000998 -11.597123 -1.4575499 46
9.3474169 -11.677888 -1.4605399 34
9.312604 -11.781863 -1.46652 38
9.267683 -11.874082 -1.471005 36
9.2183361 -11.961463 -1.474892 35
9.1718798 -12.053435 -1.479377 34
9.1246414 -12.145287 -1.483862 21
9.0410566 -12.189057 -1.482367 12
9.0172348 -12.31415 -1.4910381 14
8.9531641 -12.385376 -1.4930314 15
8.8654423 -12.423878 -1.4910381 12
8.8744097 -12.599257 -1.5058885 14
8.7446861 -12.578305 -1.4967191 22
8.6729708 -12.63993 -1.4977157 22
8.6532679 -12.778598 -1.5080811 28
8.6106272 -12.88523 -1.5145595 29
8.5450954 -12.95859 -1.5170512 27
8.480072 -13.033297 -1.5197421 25
8.4192905 -13.11523 -1.5233302 28
8.3839054 -13.238098 -1.5318019 17
8.3151712 -13.309546 -1.5341939 14
8.2041197 -13.312877 -1.5286125 8
8.1631021 -13.43014 -1.5364863 18
8.1117458 -13.532038 -1.5425659 13
8.0164118 -13.560997 -1.5401739 15
7.9616094 -13.658932 -1.5458549 12
7.9396162 -13.815369 -1.5583134 10
7.8125205 -13.789369 -1.549742 22
7.7850056 -13.93956 -1.5615027 42
7.7137203 -14.013217 -1.5644927 33
7.6494145 -14.100517 -1.5690774 42
7.5824504 -14.184044 -1.5732634 40
7.5982037 -14.425752 -1.5953895 17
7.4220247 -14.303405 -1.5763531 23
7.354497 -14.388547 -1.5808381 23
7.2844133 -14.469843 -1.5849245 19
7.2087479 -14.541013 -1.5879145 20
7.125936 -14.598384 -1.5894095 19
7.0452771 -14.660667 -1.5915024 20
7.0253806 -14.852037 -1.6079476 51
6.9332781 -14.893061 -1.6077483 48
6.8616538 -14.978745 -1.6125323 54
6.7831063 -15.050502 -1.6158212 48
6.7059522 -15.126407 -1.6196086 48
6.636869 -15.221996 -1.6255887 20
6.5315833 -15.234997 -1.6225986 17
6.4735284 -15.359144 -1.631768 19
6.3879218 -15.41972 -1.6340603 23
6.3048162 -15.487195 -1.63715 19
6.2111478 -15.529284 -1.6375487 18
6.1648545 -15.692132 -1.6510037 81
3.1712053 -8.2183428 -0.84459734 25
3.039319 -8.0226927 -0.82157427 158
2.9255559 -7.867712 -0.80303615 458
2.8141527 -7.7125788 -0.78459775 43
2.700073 -7.5432649 -0.76476401 54
2.625406 -7.4789448 -0.75619262 56
2.5535731 -7.4196405 -0.74821931 70
2.4943297 -7.3946257 -0.74393362 54
2.4283116 -7.3474345 -0.73735559 419
2.3828766 -7.361249 -0.73725593 866
2.3421712 -7.3899603 -0.73875093 79
2.2961938 -7.4022913 -0.73855156 18
2.2521751 -7.4210024 -0.73904991 10
2.2074471 -7.4375434 -0.73934889 7
0 -0 -0 7
0 -0 -0 4
2.0709684 -7.4797921 -0.73964792 4
0 -0 -0 3
0 -0 -0 4
1.9425981 -7.5542293 -0.74353492 6
1.8969349 -7.568902 -0.74383396 5
0 -0 -0 5
1.8101169 -7.6177492 -0.74652493 9
1.7687157 -7.6519804 -0.74891692 5
0 -0 -0 6
0 -0 -0 4
0 -0 -0 7
1.587597 -7.7281713 -0.75250494 7
1.5436417 -7.7553334 -0.75429899 8
0 -0 -0 5
1.4549115 -7.808908 -0.75788701 4
1.4185922 -7.8823228 -0.76446503 36
0 -0 -0 4
1.323562 -7.9099331 -0.76556134 8
0 -0 -0 5
0 -0 -0 3
0 -0 -0 5
0 -0 -0 4
0 -0 -0 5
0 -0 -0 4
0 -0 -0 4
0.96161795 -8.2025337 -0.78948146 6
0.91159904 -8.2112465 -0.78978044 10
0.86223441 -8.2265816 -0.79077715 4
0.81271589 -8.2416201 -0.7917738 5
0 -0 -0 5
0 -0 -0 7
0.66587055 -8.3176699 -0.79805285 13
0.61855376 -8.3722076 -0.80313587 12
0.56898254 -8.4026499 -0.80582684 4
0.52040285 -8.4546471 -0.81071055 11
0 -0 -0 4
0 -0 -0 5
0 -0 -0 4
0 -0 -0 11
0 -0 -0 5
0 -0 -0 7
0 -0 -0 5
0.1077539 -8.7008257 -0.83383334 5
0.054559283 -8.7331638 -0.83702266 4
0.00097177044 -8.7701492 -0.84071034 10
-0 -0 -0 6
-0 -0 -0 6
-0 -0 -0 5
-0 -0 -0 5
-0 -0 -0 5
-0 -0 -0 5
-0.29639545 -6.9200315 -0.65602726 9
-0.34012035 -6.943922 -0.65861857 239
-0.38338035 -6.9536262 -0.6598146 16
-0 -0 -0 6
-0 -0 -0 5
-0.51438415 -6.9870691 -0.66400057 7
-0.5567705 -6.9778299 -0.66340262 5
-0 -0 -0 5
-0 -0 -0 4
-0 -0 -0 5
-0 -0 -0 4
-0 -0 -0 5
-0 -0 -0 5
-0 -0 -0 5
-0 -0 -0 6
-0 -0 -0 4
-0 -0 -0 4
-0.92930281 -6.2718349 -0.5973233 6
-0.96776855 -6.2660146 -0.5973233 8
-1.0049332 -6.2520995 -0.59652597 7
-0 -0 -0 3
-0 -0 -0 4
-1.1260086 -6.2668185 -0.60001433 20
-1.1666257 -6.2715297 -0.60121036 64
-1.1949252 -6.2114916 -0.59582829 112
-1.2376751 -6.2274642 -0.59822035 92
-1.2714599 -6.1983099 -0.59602767 102
-1.3127658 -6.2059665 -0.59762233 129
-1.3584547 -6.2327924 -0.60121036 118
-1.3995073 -6.2369609 -0.60250598 103
-1.4435737 -6.2534628 -0.60509735 88
-1.517786 -6.3955097 -0.6206454 20
-0 -0 -0 6
-0 -0 -0 6
-0 -0 -0 4
-0 -0 -0 4
-0 -0 -0 5
-0 -0 -0 5
-0 -0 -0 5
-0 -0 -0 4
-0 -0 -0 5
-0 -0 -0 4
-0 -0 -0 4
-0 -0 -0 4
-0 -0 -0 4
-0 -0 -0 5
-0 -0 -0 4
-0 -0 -0 6
-2.4947114 -7.1124954 -0.71722281 22
-2.5326068 -7.0811276 -0.71552849 89
-5.453496 -14.954013 -1.556619 63
-5.5593643 -14.958508 -1.5607053 48
-5.662673 -14.954823 -1.5639944 41
-6.0512118 -15.689389 -1.6466184 42
-5.8741426 -14.956445 -1.5717684 36
-6.3349223 -15.843071 -1.6713358 29
-6.4560237 -15.862885 -1.6777145 37
-6.2048049 -14.981839 -1.5865191 89
-6.1895733 -14.689499 -1.5589113 92
-6.1843219 -14.429013 -1.5346923 64
-6.3025641 -14.459204 -1.5421673 76
-6.3956013 -14.430265 -1.5432636 59
-6.4758468 -14.372608 -1.5412703 113
-6.5688863 -14.343458 -1.5424663 85
-6.6756687 -14.343475 -1.5469513 72
-6.7801452 -14.337324 -1.5508384 73
-6.9011736 -14.36451 -1.5585127 48
-7.3824258 -15.12756 -1.6483127 70
-7.4552207 -15.04186 -1.6438277 78
-7.5500598 -15.001165 -1.6444257 87
-7.6691337 -15.007716 -1.6504058 76
-7.7798634 -14.996589 -1.654492 73
-7.8383498 -14.885182 -1.6473161 35
-7.9201546 -14.819257 -1.6453227 58
-8.0270662 -14.800118 -1.6487114 42
-8.3240414 -15.125416 -1.6915683 53
-8.4521074 -15.137474 -1.698844 69
-8.619381 -15.216921 -1.7139933 68
-8.7616692 -15.249156 -1.7238604 73
-8.8415422 -15.171898 -1.7211694 49
-8.9364948 -15.120788 -1.721568 43
-9.0787268 -15.148454 -1.7312357 72
-9.0908861 -14.959817 -1.7156876 25
-9.1292629 -14.81735 -1.7055216 34
-0 -0 -0 13
-4.0401216 -6.3819151 -0.71881747 22
-4.0700665 -6.3427701 -0.71712315 11
-4.1061954 -6.3135071 -0.7166248 11
-8.7014666 -13.198736 -1.5457553 18
-4.5603871 -6.8268728 -0.78459775 38
-4.5982852 -6.792995 -0.78390008 67
