# .PCD v0.7 - Point Cloud Data file format
VERSION 0.7
FIELDS x y z intensity
SIZE 4 4 4 4
TYPE F F F F
COUNT 1 1 1 1
WIDTH 1497
HEIGHT 1
VIEWPOINT 0 0 0 1 0 0 0
POINTS 1497
DATA ascii
-1.3520359 3.9996502 -0.90479386 6
-1.3342139 4.0282531 -0.90959674 4
-0 0 -0 5
-0 0 -0 5
-0 0 -0 4
-0 0 -0 5
-0 0 -0 7
-0 0 -0 4
-0 0 -0 5
-0 0 -0 4
-0 0 -0 5
-0 0 -0 5
-0.6985364 2.7075744 -0.58583772 21
-0.68214744 2.7127559 -0.58605599 16
-0.66664839 2.7216303 -0.58714759 14
-0.6499362 2.7256694 -0.58714759 12
-0.63430023 2.7343597 -0.58823913 12
-0.61815345 2.7410564 -0.58889407 13
-0 0 -0 5
-0 0 -0 5
-0 0 -0 6
-0 0 -0 4
-0 0 -0 5
-0 0 -0 5
-0 0 -0 4
-0 0 -0 5
-0 0 -0 5
-0 0 -0 4
-0 0 -0 5
-0 0 -0 5
-0 0 -0 4
-0 0 -0 4
-0 0 -0 5
-0 0 -0 5
-0 0 -0 7
-0 0 -0 4
-0 0 -0 4
-0 0 -0 5
-0 0 -0 4
-0 0 -0 3
-0 0 -0 5
-0 0 -0 5
-0 0 -0 5
-0 0 -0 5
-0 0 -0 4
-0 0 -0 4
-0 0 -0 5
-0 0 -0 7
-0.12718244 4.0404277 -0.86462414 15
-0.10258396 4.0489364 -0.86637062 4
-0.077959649 4.0611982 -0.86899042 5
-0 0 -0 4
-0.028181404 4.0716076 -0.87117356 9
-0.0031896357 4.0551138 -0.86746222 8
0 0 -0 6
0 0 -0 6
0.16077496 9.0423775 -1.9834812 4
0.21538691 9.0051241 -1.9754035 24
0.27040169 8.9958296 -1.973657 15
0.32414135 8.9540157 -1.9647062 25
0.38106391 8.9986582 -1.9751853 9
0.43437564 8.9571619 -1.9664527 21
0.4874061 8.9192486 -1.9585934 18
0.54182762 8.9112196 -1.9575019 23
0.59368652 8.865859 -1.9481144 27
0.64550835 8.8270121 -1.940255 36
0.69409412 8.7528419 -1.9245365 24
0.74479085 8.7134151 -1.9166772 28
0.79797375 8.7057657 -1.9160223 15
0.8513763 8.7007055 -1.9160223 10
0.90191537 8.6681404 -1.9099095 23
0.95315772 8.6449833 -1.9059799 13
1.0042629 8.6224937 -1.9022685 16
1.0565557 8.6113262 -1.9011769 22
1.107875 8.5930672 -1.8985572 16
1.1595335 8.578371 -1.8968107 7
1.2102326 8.5575676 -1.8937542 12
1.261291 8.5403261 -1.8915712 13
1.3105485 8.5121717 -1.8869866 12
1.3638353 8.5107155 -1.8885148 20
1.4210045 8.5320272 -1.8952825 16
1.4616843 8.4558363 -1.8800006 4
1.5126796 8.441905 -1.878909 15
1.561065 8.4142351 -1.874761 13
1.6126643 8.4044981 -1.874761 13
1.6621141 8.3839149 -1.8723595 12
1.7031496 8.3228884 -1.8607889 9
1.761243 8.3457003 -1.8684299 13
1.8103433 8.325201 -1.8662468 8
1.8547782 8.2844152 -1.8594791 13
1.9036028 8.2643204 -1.8575143 18
1.9540509 8.2515345 -1.8572959 8
2.0032597 8.2337008 -1.855986 12
2.0556362 8.2288275 -1.8577325 18
2.1056037 8.2141695 -1.8572959 14
2.1510003 8.1822195 -1.8529297 11
2.1971004 8.1537914 -1.8494366 16
2.2429328 8.1251059 -1.8459436 5
2.2712338 8.0351276 -1.8282602 13
2.3123538 7.9929185 -1.8217108 8
0 0 -0 6
2.4085681 7.9583364 -1.820401 11
0 0 -0 6
2.4951606 7.8937535 -1.8123233 8
2.5513475 7.9024396 -1.8179995 13
2.5881734 7.8514185 -1.8097036 12
2.6375453 7.8390894 -1.8105768 14
2.6821084 7.8126054 -1.8081753 11
2.7274139 7.7886333 -1.8064289 14
2.7695715 7.7561288 -1.8027176 4
2.8161082 7.736238 -1.8020626 11
2.8618262 7.7142386 -1.800971 13
2.9025478 7.6791902 -1.796823 15
2.9415445 7.6402907 -1.7918018 20
2.9848056 7.6130133 -1.7896187 17
3.011919 7.5456157 -1.7778298 18
3.0735948 7.5649629 -1.786999 15
3.1046617 7.5089884 -1.7780482 18
3.1578696 7.5068874 -1.782196 17
3.1954226 7.4676328 -1.7773931 22
3.2139156 7.385252 -1.7621112 17
3.2714157 7.3930554 -1.7688789 27
3.3227243 7.3861923 -1.7721536 20
3.3545866 7.3363795 -1.7649493 23
3.4052978 7.3280473 -1.7680057 20
3.4439459 7.2937789 -1.7647309 23
3.4679468 7.2293987 -1.7540336 15
3.5041158 7.1913166 -1.7498857 13
3.5299902 7.1329484 -1.7407165 13
3.5693073 7.1024356 -1.7385334 18
3.6043901 7.0638866 -1.7343854 20
3.6476655 7.0416374 -1.7343854 26
3.6889863 7.0156684 -1.7335122 22
3.7223127 6.9748225 -1.7289275 19
3.7515583 6.9269686 -1.7225964 27
3.7770662 6.8730326 -1.7147372 27
3.8163152 6.844614 -1.7134273 22
3.8587215 6.821918 -1.7136456 15
3.8912776 6.782032 -1.7094977 24
3.9274173 6.7487507 -1.7070962 23
3.9657762 6.7194834 -1.7057863 24
4.0049262 6.6916742 -1.704913 13
4.029705 6.6402798 -1.697927 29
4.0703735 6.6154289 -1.697927 16
4.1108885 6.5903292 -1.697927 29
4.1376848 6.5435381 -1.6922508 25
4.1803908 6.5221343 -1.6933424 26
4.2043786 6.4718127 -1.686793 33
4.2370315 6.4352984 -1.683955 24
4.2775216 6.4108028 -1.6843916 25
4.2998281 6.3593769 -1.6776239 38
4.3420777 6.3377037 -1.6789337 21
4.3675246 6.2917042 -1.6736943 24
4.3903251 6.2424393 -1.6675814 26
4.4223151 6.2066417 -1.66518 28
4.4648852 6.1857195 -1.6669265 27
4.4872007 6.13694 -1.6610321 37
4.525353 6.1100755 -1.6612504 35
4.5838451 6.1102929 -1.6691096 38
4.6159363 6.0750594 -1.6671448 33
4.6638398 6.0605416 -1.6710745 29
4.6877389 6.0148792 -1.6662716 29
4.70823 5.965322 -1.6603771 30
4.7240238 5.9104056 -1.6529545 32
4.7516036 5.8706899 -1.6498981 25
4.7819676 5.8346319 -1.6479332 22
4.8295217 5.819447 -1.6520811 27
4.8463006 5.767293 -1.6455318 37
4.8828616 5.7389345 -1.6459684 33
4.92945 5.7221727 -1.6498981 17
4.9400883 5.6638756 -1.6416022 22
4.9553657 5.611515 -1.6350527 41
4.9825482 5.5730023 -1.6326512 37
5.0009298 5.5249634 -1.6274117 42
5.0261636 5.4848223 -1.6245737 38
5.0577316 5.4517331 -1.6239188 34
5.0864105 5.4156184 -1.6223905 41
5.125597 5.3906708 -1.6243553 49
5.1585774 5.3591194 -1.6243553 41
5.194088 5.3301611 -1.6252286 35
5.1855679 5.2565136 -1.6121298 42
5.2135854 5.2204542 -1.6108199 42
5.2358046 5.1787601 -1.6077635 32
5.2702746 5.1492639 -1.6086367 39
5.3066869 5.121572 -1.610165 25
5.3274155 5.0788155 -1.6068903 31
5.36061 5.048038 -1.6075453 27
5.3964858 5.0197029 -1.6090734 29
5.4235911 4.9831953 -1.6079818 45
5.4453921 4.9419546 -1.6053621 27
5.4632583 4.8973775 -1.6016507 16
5.482244 4.8540611 -1.598376 33
5.508986 4.8177624 -1.5975028 22
5.5428753 4.7876959 -1.5988127 27
5.5461593 4.7314315 -1.5911717 33
5.5743399 4.6966834 -1.5909534 22
5.6068044 4.6655116 -1.5920449 18
5.6323099 4.6285434 -1.5911717 18
5.6590881 4.5926676 -1.5907351 18
5.6658373 4.5407729 -1.5846223 29
5.6935921 4.5059223 -1.5846223 25
5.7165184 4.4672976 -1.5833124 16
5.7345495 4.4249849 -1.5806926 16
5.7639217 4.391489 -1.5813476 18
5.786859 4.353107 -1.580256 16
5.8103261 4.3151908 -1.5793828 25
5.835907 4.2788811 -1.5791644 22
5.8430772 4.2292624 -1.5739249 21
5.8554173 4.1836882 -1.5702136 28
5.8809776 4.1476812 -1.5702136 20
5.8894954 4.0998125 -1.565629 31
5.9274111 4.0724378 -1.569122 14
5.9320927 4.0223026 -1.5636642 16
5.9396276 3.9744341 -1.5590796 17
5.9671602 3.9400647 -1.5599529 15
5.974051 3.8921926 -1.5553683 25
5.9937158 3.8528254 -1.5542767 13
6.0106497 3.8117962 -1.5525302 18
6.0248237 3.7691519 -1.5501287 15
6.0420237 3.7285268 -1.5486006 14
6.0639539 3.6908762 -1.5483823 14
6.0898337 3.6556075 -1.5492555 18
6.1171885 3.6211541 -1.5505654 21
6.1494069 3.5894532 -1.5531851 17
6.1603193 3.5453274 -1.5503471 23
6.1845036 3.5089059 -1.551002 16
6.2161388 3.4766071 -1.5536218 23
6.2082944 3.4223869 -1.5461991 20
6.2411828 3.3907492 -1.5492555 19
6.2515454 3.3468647 -1.5466357 11
6.2676477 3.3061671 -1.5455441 24
6.2791557 3.2631485 -1.5433611 22
6.2938476 3.2218919 -1.5420511 23
6.318727 3.185848 -1.5433611 15
6.3302889 3.1431124 -1.5413961 21
6.3336735 3.0964987 -1.5374665 16
6.3551922 3.0588472 -1.5381215 14
6.3579655 3.0122764 -1.5341918 13
6.3763289 2.973208 -1.5341918 14
6.3971133 2.9352481 -1.5348468 13
6.3936548 2.8863077 -1.5296073 15
6.4076767 2.8454392 -1.528734 20
6.4276986 2.80724 -1.5293889 13
6.4456992 2.7681324 -1.5296073 16
6.4535718 2.724736 -1.5274241 14
6.4872956 2.6921906 -1.5315721 22
6.4991741 2.6504927 -1.5304805 15
6.4881368 2.5996802 -1.5239311 16
6.503058 2.5594635 -1.5237128 16
6.5295639 2.5237334 -1.5263325 13
6.515728 2.4725468 -1.5193465 12
0 0 -0 6
6.5730782 2.4024482 -1.525896 11
6.5987196 2.3660221 -1.5285157 10
6.5956202 2.3193405 -1.5243677 13
6.625412 2.2842317 -1.528079 10
6.6319065 2.2410378 -1.5263325 17
6.6566501 2.2039819 -1.5289524 10
6.6561232 2.1585827 -1.5256776 13
6.6645918 2.116225 -1.5245861 12
6.6765194 2.0750024 -1.5243677 11
6.6807222 2.0314434 -1.5224029 18
6.6762233 1.9854085 -1.5184733 7
6.7004623 1.9479462 -1.5213114 11
6.7122889 1.9067962 -1.5213114 11
6.7106967 1.8619241 -1.518255 17
6.7182269 1.819693 -1.5173817 19
6.7443624 1.7824235 -1.5208747 18
6.7532821 1.7405206 -1.5204381 20
6.766674 1.6997632 -1.521093 26
6.7580171 1.653576 -1.5167267 19
6.7841754 1.6159198 -1.5204381 14
6.7882586 1.5729417 -1.5191282 13
6.7873092 1.5289029 -1.5167267 20
6.7994227 1.4878533 -1.5173817 17
6.7931499 1.4428633 -1.5138887 16
6.8018756 1.4011542 -1.5138887 18
6.7988605 1.3571019 -1.511269 9
6.8204741 1.3179492 -1.5143253 19
6.8380256 1.2778658 -1.5165085 13
6.8495789 1.2365773 -1.5173817 10
6.8474236 1.1928525 -1.5151986 11
6.8613505 1.151945 -1.5167267 20
6.8528752 1.1073347 -1.5132338 22
6.8450756 1.0630215 -1.509959 25
6.8533998 1.0212883 -1.5103956 12
6.8431134 0.9768756 -1.5066843 12
6.8663836 0.93724138 -1.510614 20
6.8826499 0.89647716 -1.5130154 24
6.8851156 0.85386932 -1.5123605 11
6.8902254 0.81160694 -1.5123605 15
6.9018645 0.77007037 -1.5138887 12
6.8909316 0.72607327 -1.5103956 13
6.8962278 0.68387383 -1.510614 17
6.894464 0.6410054 -1.509304 8
6.8963227 0.59852123 -1.5088675 15
6.9018111 0.55635142 -1.509304 19
6.9138536 0.51464278 -1.511269 19
6.8964353 0.47081804 -1.5066843 10
6.9128304 0.4293381 -1.5097407 14
6.905591 0.38637015 -1.5075576 17
6.89711 0.34345886 -1.5051562 11
6.9000626 0.30117491 -1.5053744 18
6.8871527 0.25828511 -1.5020998 12
6.8905587 0.21608233 -1.5025364 14
6.8849258 0.17362751 -1.5010082 12
6.8946428 0.1315452 -1.502973 9
6.915812 0.089499764 -1.5075576 7
6.9533138 0.047309604 -1.5158535 13
6.9642076 0.0046493672 -1.518255 12
6.9621534 -0.038071301 -1.5178183 14
6.970571 -0.080892928 -1.5197831 12
6.9757977 -0.12376686 -1.521093 10
6.9661269 -0.16635609 -1.5191282 19
6.9503436 -0.20865463 -1.5158535 10
6.9635606 -0.25182864 -1.5191282 18
6.9453096 -0.2938475 -1.5154169 20
6.9453254 -0.33655238 -1.5158535 12
6.937283 -0.37884149 -1.5145437 15
6.9299574 -0.42110395 -1.5134521 14
6.9321117 -0.46394411 -1.5145437 13
6.9349742 -0.50689781 -1.5158535 18
6.9327059 -0.54951775 -1.5160718 12
6.9505949 -0.59387696 -1.5208747 21
6.9419608 -0.63606781 -1.5197831 12
6.9359851 -0.6784606 -1.5193465 14
6.9452801 -0.72242194 -1.5224029 16
6.9087071 -0.76149023 -1.5151986 16
6.9077821 -0.80431902 -1.5160718 13
6.9104657 -0.84764105 -1.5178183 17
6.8973918 -0.8890276 -1.5160718 15
6.8937411 -0.93159413 -1.5165085 21
6.9043212 -0.97620106 -1.5202198 19
6.9146132 -1.0209728 -1.5239311 23
6.9043603 -1.0627863 -1.5230578 22
6.9102354 -1.1071398 -1.525896 20
6.9042749 -1.1496798 -1.5261142 25
6.910553 -1.194351 -1.5291706 26
6.9069366 -1.2374198 -1.5300438 20
6.8685107 -1.2740761 -1.5230578 17
6.8653555 -1.3171167 -1.5241494 24
6.8533158 -1.3584573 -1.5232762 22
6.8458076 -1.4006786 -1.5234945 19
6.8370843 -1.4426574 -1.5234945 11
6.8204746 -1.4829218 -1.5217479 11
6.8207703 -1.5268769 -1.5239311 12
6.8207827 -1.5708915 -1.5261142 18
6.7996202 -1.6100134 -1.5234945 9
6.8009915 -1.6544746 -1.5261142 25
6.8001795 -1.6985401 -1.5282974 11
6.7905746 -1.7404757 -1.5285157 20
6.7882614 -1.7843432 -1.5304805 14
6.7630515 -1.8221512 -1.5272058 18
6.7667942 -1.8677711 -1.5306988 13
6.7589626 -1.9103185 -1.5315721 21
6.7527385 -1.9533827 -1.532882 25
6.7359471 -1.9933946 -1.5317904 30
6.7319951 -2.0372334 -1.5337552 10
6.7184358 -2.0782132 -1.5335369 19
6.7083488 -2.1202805 -1.5341918 25
6.7007847 -2.163202 -1.5355017 23
6.6966534 -2.2073331 -1.5376849 30
6.6876078 -2.249938 -1.5387764 28
6.6672158 -2.2887111 -1.5372483 26
6.6502838 -2.3286092 -1.5365933 21
6.6597648 -2.3779066 -1.5422695 25
6.6652217 -2.4260719 -1.5470723 41
6.6264229 -2.4580948 -1.5413961 21
6.6185179 -2.5014689 -1.5431427 33
6.6066875 -2.5434353 -1.544016 16
6.5973163 -2.5864196 -1.5455441 20
6.6003542 -2.6344514 -1.5501287 29
6.595818 -2.6796777 -1.5529668 32
6.5621176 -2.7130115 -1.5488188 23
6.5417495 -2.7517107 -1.5479456 16
6.5184622 -2.7891102 -1.5464174 21
6.5289636 -2.8411298 -1.5531851 20
6.5221162 -2.8858774 -1.5558048 33
6.4909372 -2.9198349 -1.5525302 19
6.4906478 -2.9677262 -1.5568964 20
6.4802804 -3.0111985 -1.5588613 39
6.4634471 -3.0517378 -1.5592979 28
6.4331627 -3.0858507 -1.5564598 36
6.4272652 -3.1316795 -1.5597346 32
6.3624511 -3.1485431 -1.5483823 47
6.3813758 -3.2068095 -1.557988 28
6.3650556 -3.2476792 -1.5588613 33
6.3224807 -3.2749996 -1.5531851 32
6.2729015 -3.2982855 -1.5457624 37
6.2904239 -3.3569355 -1.5553683 29
6.2662759 -3.39361 -1.554495 30
6.2307968 -3.4240034 -1.5507836 35
6.2446136 -3.4816601 -1.5597346 23
6.2409692 -3.5300031 -1.5643191 32
6.1861835 -3.5492849 -1.5558048 34
6.2148914 -3.6166339 -1.5689037 29
6.1724148 -3.6427925 -1.5636642 25
6.1616693 -3.6876149 -1.5667206 12
6.138092 -3.7248464 -1.5665022 20
6.1234322 -3.767554 -1.5686854 14
6.1018553 -3.8060892 -1.569122 13
6.0973558 -3.8554564 -1.5741432 19
6.0809779 -3.897537 -1.5761081 7
6.0495844 -3.9299901 -1.5741432 15
6.060401 -3.9901168 -1.5835307 6
6.0325575 -4.0250607 -1.5826575 11
5.9988546 -4.0559859 -1.580256 14
5.9819045 -4.0982347 -1.5824392 17
5.9590502 -4.1365314 -1.5830941 26
5.9287682 -4.1696486 -1.5817842 25
5.9157867 -4.2150106 -1.5852772 20
5.8945599 -4.2546577 -1.5865871 21
5.8896098 -4.3063011 -1.5924816 17
5.8536668 -4.3353868 -1.5898618 23
5.8386631 -4.3800087 -1.5931365 30
5.8210015 -4.4228377 -1.5957563 24
5.7960734 -4.4602571 -1.5964112 29
5.770906 -4.4975371 -1.5970662 23
5.7447329 -4.5340714 -1.5975028 31
5.7328105 -4.5820327 -1.6020874 27
5.7007952 -4.6140518 -1.6009958 17
5.6942625 -4.6668873 -1.6073269 23
5.6482496 -4.6874022 -1.6023057 22
5.6328287 -4.7332735 -1.6062353 23
5.6192861 -4.7810292 -1.6108199 18
5.5854087 -4.8115964 -1.6095101 14
5.5594568 -4.8489852 -1.6106015 11
5.5413017 -4.893343 -1.6140946 15
5.4958968 -4.9135904 -1.6095101 15
5.4656439 -4.9472198 -1.6095101 18
5.4251146 -4.9714313 -1.6064537 12
5.4045224 -5.0139194 -1.6095101 19
5.3836131 -5.0563412 -1.6125665 22
5.3623862 -5.0986953 -1.6156228 10
5.3331094 -5.1335325 -1.6162777 19
5.3112936 -5.1756959 -1.6193341 11
5.287077 -5.2157278 -1.6217356 25
5.2591166 -5.2522087 -1.6230454 19
5.2219877 -5.2795219 -1.6215173 25
5.2031322 -5.3254266 -1.6258836 27
5.1601944 -5.3467178 -1.6226088 27
5.13133 -5.3825178 -1.6239188 29
5.1089096 -5.425271 -1.6274117 19
5.0854926 -5.467236 -1.6306864 19
5.0564713 -5.5033684 -1.6322147 18
5.0285101 -5.5407953 -1.6341795 18
5.0100479 -5.5889874 -1.639419 23
4.9898901 -5.6356997 -1.6442219 23
4.9449391 -5.6544557 -1.6407288 15
4.9203558 -5.6965089 -1.6442219 17
4.892909 -5.7355027 -1.6468416 16
4.8758559 -5.7870626 -1.6531727 25
4.8259015 -5.7996159 -1.6481515 15
4.790225 -5.8291178 -1.6481515 19
4.7672791 -5.8743148 -1.6527361 19
4.7354169 -5.9087873 -1.6542643 10
4.693017 -5.9300785 -1.6520811 16
4.6649532 -5.9695292 -1.6551375 24
4.6353898 -6.0073128 -1.6577573 15
4.6031728 -6.0418525 -1.6595038 20
4.5695329 -6.0746632 -1.6608137 11
4.5263562 -6.0947514 -1.6586306 14
4.4854131 -6.1176872 -1.6573207 16
4.4523678 -6.1514192 -1.6590672 9
4.4202113 -6.186564 -1.6612504 13
4.387229 -6.2207475 -1.6632152 14
4.3590102 -6.2619681 -1.6671448 19
4.3221631 -6.2910099 -1.6677997 16
4.3048348 -6.3489161 -1.676314 20
4.2674251 -6.3776436 -1.6769689 8
4.2346635 -6.4134817 -1.6795887 9
4.1781888 -6.4131765 -1.6726027 6
4.1524758 -6.4600387 -1.6782788 7
4.11485 -6.4886928 -1.679152 8
4.0951385 -6.5460877 -1.6876663 13
4.0405498 -6.5478363 -1.6815535 15
4.0063839 -6.5825095 -1.6841732 10
3.9724464 -6.6178465 -1.6870114 17
3.9337533 -6.6454558 -1.6878846 15
3.9120841 -6.7023401 -1.6963989 15
3.8606665 -6.7084546 -1.6918142 22
3.8252087 -6.7422032 -1.694434 25
3.7885294 -6.7740655 -1.6966171 28
3.7553709 -6.8125682 -1.7005467 26
3.7102389 -6.8294797 -1.6990186 27
3.6645806 -6.8452334 -1.6972721 27
3.643903 -6.9081616 -1.7075328 27
3.5978479 -6.9234619 -1.7057863 25
3.5584104 -6.951489 -1.7073145 37
3.5112977 -6.9644775 -1.7051314 44
3.4741385 -6.9972553 -1.7079694 24
3.4345665 -7.0254545 -1.709716 24
3.4023948 -7.0692606 -1.7153921 23
3.3455887 -7.0617809 -1.7084061 28
3.3001342 -7.0777535 -1.7073145 42
3.2639666 -7.1138363 -1.7112441 36
3.2126293 -7.1168289 -1.7070962 47
3.1677132 -7.1337314 -1.7064413 45
3.1352043 -7.1789708 -1.7127724 37
3.1149621 -7.2536712 -1.7263077 42
3.0628071 -7.2546659 -1.7219415 50
3.0287051 -7.2985616 -1.7280543 44
2.9764977 -7.2989345 -1.723688 30
2.9243999 -7.2989421 -1.7193217 45
2.8927774 -7.3503494 -1.7273993 27
2.8462155 -7.3643193 -1.7265261 33
2.8020136 -7.3843822 -1.7271811 32
2.7614176 -7.4142399 -1.7302375 36
2.7165425 -7.4328775 -1.730674 32
2.6728594 -7.4549179 -1.7319839 25
2.62286 -7.459209 -1.7291459 43
2.5907125 -7.5148358 -1.7385334 27
2.5611033 -7.5795927 -1.750104 31
2.5206792 -7.6136942 -1.7544702 29
2.4832428 -7.6577959 -1.761238 32
2.4370942 -7.6756792 -1.7618929 22
2.387346 -7.6821008 -1.7599281 28
2.3455558 -7.7143455 -1.764076 27
2.3131902 -7.7791057 -1.775865 23
2.265415 -7.7931528 -1.775865 25
2.2127571 -7.7900085 -1.7719353 22
2.1714356 -7.8269491 -1.7773931 21
2.1233695 -7.8401251 -1.7773931 18
2.0772171 -7.8605547 -1.7791396 28
2.0304067 -7.8788223 -1.7804495 28
1.9882025 -7.9157419 -1.7861257 15
1.9467802 -7.9571786 -1.7928934 18
1.9033424 -7.9917588 -1.7981329 22
1.8562511 -8.0118437 -1.8000978 27
1.8089851 -8.0316505 -1.8020626 29
1.7557093 -8.0244856 -1.7979146 18
1.7167712 -8.0837927 -1.8090487 32
1.6643834 -8.0807934 -1.8059922 14
1.618014 -8.1071224 -1.8097036 19
1.5654644 -8.1025257 -1.8064289 14
1.5239576 -8.156106 -1.8164713 16
0 -0 -0 4
0 -0 -0 5
0 -0 -0 5
1.3266034 -8.2112808 -1.8210559 8
1.2784389 -8.2337313 -1.8243306 11
1.2270316 -8.23563 -1.8230207 14
0 -0 -0 5
0 -0 -0 5
1.0742255 -8.2490778 -1.8212742 11
1.0247895 -8.2651987 -1.8234574 16
0.97644979 -8.2916842 -1.8280419 8
0.92749953 -8.3149776 -1.8319715 6
0.87625813 -8.3185711 -1.831535 8
0.83000684 -8.3723478 -1.8424506 10
0.77501225 -8.3384151 -1.8337181 17
0.72711855 -8.3809309 -1.8422323 14
0.67802787 -8.4144163 -1.8487817 20
0.62725258 -8.4300966 -1.8514014 20
0.57186782 -8.3802376 -1.8393942 43
0.52357411 -8.4342375 -1.8507465 65
0.47306284 -8.4597015 -1.8557677 40
0.42303273 -8.5004568 -1.864282 36
0.37226588 -8.5350666 -1.8714863 31
0.32058045 -8.5557184 -1.8756343 39
0.26953787 -8.6043444 -1.8861133 34
0.21663979 -8.6019335 -1.8852401 40
0.16396596 -8.6089554 -1.8865499 44
0.11075289 -8.5795498 -1.8797822 46
0.058133584 -8.583971 -1.8806555 48
0.0054886765 -8.6368637 -1.8924444 41
-0.047473237 -8.6308794 -1.8911345 47
-0.10068312 -8.6518936 -1.8959374 40
-0.1534013 -8.6306229 -1.8913529 45
-0.20710564 -8.660738 -1.8983389 34
-0.25986025 -8.6466236 -1.8955008 44
-0.3136895 -8.6663218 -1.9003037 44
-0.36752173 -8.6798334 -1.9037967 41
-0.42086807 -8.6793652 -1.9042333 44
-0.47705135 -8.7302122 -1.9162406 36
-0.52859193 -8.6940022 -1.9088179 34
-0.58349526 -8.7139635 -1.9140575 53
-0.64058858 -8.7598562 -1.9251914 33
-0.69594866 -8.7761898 -1.9297761 32
-0.74978524 -8.7717543 -1.9297761 29
-0.80680496 -8.8019733 -1.9376353 30
-0.86279619 -8.8172522 -1.9422199 37
-0.91202766 -8.7652025 -1.9317409 28
-0.97178906 -8.8137608 -1.9439664 29
-1.0282246 -8.8279877 -1.9485509 23
-1.0821347 -8.8195753 -1.9481144 31
-1.1369798 -8.8185759 -1.9494243 23
-1.1944702 -8.8365774 -1.9551004 36
-1.2477105 -8.8223181 -1.9535722 18
-1.3033894 -8.8251162 -1.9559736 30
-1.3636086 -8.8564968 -1.9649245 37
-1.4151436 -8.8306189 -1.9609948 24
-1.4776441 -8.8718243 -1.9723471 35
-1.5292248 -8.8462439 -1.9686358 33
-1.5888153 -8.8664713 -1.9754035 32
-1.6417639 -8.8488798 -1.973657 36
-1.6960287 -8.8386393 -1.973657 33
-1.7471912 -8.8127508 -1.9701641 42
-1.8027985 -8.8095131 -1.9719106 36
-1.8582302 -8.8049688 -1.9734387 36
-1.9267459 -8.8601503 -1.9887207 26
-1.9731809 -8.8129272 -1.980643 31
-2.047164 -8.8871908 -2.0005097 30
-2.1057065 -8.8915548 -2.0044394 39
-2.1678417 -8.9097567 -2.0116436 37
-2.2309895 -8.9303703 -2.0195029 36
-2.2859855 -8.9174585 -2.0197213 40
-2.3409073 -8.9042082 -2.0199394 45
-2.4021032 -8.914175 -2.0256157 47
-2.4806566 -8.9858093 -2.0457006 23
-2.5402606 -8.9863825 -2.0494118 31
-2.5850415 -8.9350052 -2.041116 38
-2.639817 -8.9189758 -2.041116 42
-2.703826 -8.9334326 -2.0483203 30
-2.7484908 -8.8840446 -2.0406792 45
-2.8156035 -8.9070234 -2.0500667 33
-2.8663034 -8.8775072 -2.0472288 41
-2.9286678 -8.8838491 -2.0529048 38
-2.9927742 -8.8943834 -2.0596726 34
-3.0593388 -8.9109249 -2.0679686 33
-3.1168613 -8.9002743 -2.0699334 27
-3.1743686 -8.8892527 -2.0718982 32
-3.2228415 -8.8531027 -2.0679686 27
-3.2872889 -8.8606081 -2.074518 36
-3.3381431 -8.8311424 -2.0723348 34
-3.3999839 -8.8305283 -2.0771377 34
-3.4612298 -8.8276701 -2.0815039 20
-3.5127969 -8.799922 -2.0799758 32
-3.5729728 -8.7935715 -2.0836871 32
-3.6339488 -8.7886162 -2.0878351 38
-3.7010548 -8.7976351 -2.0954759 25
-3.7434452 -8.7478466 -2.0889266 46
-3.7939343 -8.7175541 -2.0871801 48
-3.8327372 -8.6610937 -2.0791025 66
-3.8597767 -8.5795689 -2.0649121 104
-3.9155948 -8.5628242 -2.0666587 164
-3.9627137 -8.527133 -2.0638206 277
-4.0320497 -8.5388355 -2.0727713 371
-4.0894332 -8.5244923 -2.0753913 544
-4.1455102 -8.5071344 -2.0773561 499
-4.2062902 -8.4990292 -2.0817223 530
-4.2636199 -8.4835234 -2.084342 451
-4.3195868 -8.4650249 -2.0863068 442
-4.3750377 -8.4452925 -2.0880535 503
-4.4313178 -8.4269257 -2.0902364 396
-4.4801836 -8.394412 -2.0889266 413
-4.5348601 -8.3727703 -2.0904548 445
-4.5908504 -8.3533392 -2.092638 469
-4.6491499 -8.3377972 -2.0959127 528
-4.7107949 -8.3277988 -2.1007156 340
-3.6352687 -6.3359919 -1.5944464 55
-3.6431463 -6.2604342 -1.5806926 33
-3.6556919 -6.1942639 -1.5693403 100
-3.6926279 -6.170042 -1.5689037 191
-3.6458466 -6.007957 -1.5324453 50
-3.6560431 -5.9422574 -1.521093 76
-3.6800365 -5.8998423 -1.5158535 60
-3.6958227 -5.8449864 -1.5073392 40
-3.7158153 -5.7975535 -1.5007899 48
-3.7369609 -5.7525511 -1.4948955 44
-3.7576947 -5.7075086 -1.4890009 47
-3.7828929 -5.669734 -1.4850713 42
-3.8066759 -5.630249 -1.480705 61
-3.8378408 -5.6019559 -1.4793952 65
-3.8615658 -5.5630717 -1.4752471 92
-3.8967505 -5.5408692 -1.4756838 124
-3.9425697 -5.5335436 -1.4802684 59
-4.1221228 -5.7110028 -1.5359384 45
-4.0470495 -5.5351562 -1.4942404 17
-3.5993397 -4.8601809 -1.3132585 58
-3.612107 -4.8153682 -1.3069274 157
-3.6256416 -4.7721367 -1.3010329 98
-3.6048517 -4.6848435 -1.2826946 96
-3.6065295 -4.6280026 -1.2728705 77
-3.6130886 -4.5782127 -1.2650112 70
-3.5990632 -4.5033646 -1.2499475 76
-3.5953097 -4.4425149 -1.2388136 80
-3.5940402 -4.3856559 -1.2287712 64
-3.5959492 -4.3334861 -1.2200387 89
-3.5986099 -4.2829533 -1.2117428 97
-3.5963595 -4.2273498 -1.2019186 101
-3.5999336 -4.1793294 -1.1942776 96
-3.5940728 -4.12113 -1.1835803 133
-3.5850503 -4.060236 -1.1720096 113
-3.6046915 -4.0323429 -1.1702632 177
-3.5822058 -3.9580636 -1.1545446 94
-3.5853231 -3.9129891 -1.1475586 85
-3.5866952 -3.8665955 -1.1401359 117
-3.58162 -3.8139324 -1.1307484 100
-3.5847778 -3.7706709 -1.1241989 102
-3.594986 -3.7352476 -1.120051 128
-3.6008079 -3.6956487 -1.1145931 136
-3.6103926 -3.6602871 -1.1104453 137
-3.6245072 -3.6297805 -1.1078254 134
-3.6467109 -3.6074727 -1.1078254 33
-3.6764567 -3.5925295 -1.1102269 75
-3.6822782 -3.5543191 -1.1052057 867
-3.689889 -3.518193 -1.1008394 47
-3.7178016 -3.5015063 -1.1028042 30
-3.7820954 -3.518501 -1.115903 6
-3.7597718 -3.4549594 -1.1025859 91
-3.7924643 -3.4423163 -1.106079 121
-3.8345907 -3.4378684 -1.1124101 114
-3.8709583 -3.4278581 -1.1169946 120
-3.9132247 -3.4226687 -1.1233257 131
-3.9459701 -3.4087977 -1.1268188 107
-3.9905725 -3.4047854 -1.1338048 39
-4.0576653 -3.4192135 -1.1473402 118
-4.0958242 -3.4086058 -1.1523614 98
-4.1332512 -3.3970385 -1.1571643 109
-4.1669006 -3.3820653 -1.1608757 104
-4.2226076 -3.3845019 -1.1709181 97
-4.2792654 -3.3869865 -1.1811788 105
-4.3214998 -3.3774874 -1.1872916 115
-4.3668685 -3.3699813 -1.1942776 90
-4.4216232 -3.3691401 -1.2038834 75
-4.4679513 -3.3613012 -1.2110878 82
-4.5221844 -3.3588374 -1.2204752 97
-4.5804892 -3.3587179 -1.2309543 94
-4.6294742 -3.3511436 -1.2388136 121
-4.6880665 -3.3499002 -1.2492926 101
-4.737246 -3.3413153 -1.257152 108
-4.7913013 -3.3355966 -1.2663211 106
-4.8470726 -3.3304446 -1.2759269 139
-4.9094219 -3.329113 -1.2872792 120
-4.9711246 -3.3265982 -1.2984132 109
-5.0346088 -3.3245254 -1.3099838 98
-5.0908937 -3.3170047 -1.3195896 97
-5.1571259 -3.315248 -1.3318151 111
-5.2169333 -3.3086224 -1.3422942 101
-5.277679 -3.3019042 -1.3529916 123
-5.3385372 -3.294564 -1.3636889 109
-5.4145093 -3.2957311 -1.3783159 116
-5.4789791 -3.2890587 -1.3898866 101
-5.5477686 -3.2842031 -1.4025488 107
-5.6217604 -3.2815769 -1.4165208 107
-5.6874681 -3.273299 -1.4283098 85
-5.7575283 -3.2667444 -1.4411902 108
-5.8192019 -3.2546899 -1.4518876 112
-1.2330744 -0.68080181 -0.27539581 52
-1.2363709 -0.67275727 -0.27517751 90
-1.231011 -0.66009331 -0.27277604 99
-1.222953 -0.64615518 -0.26971966 126
-1.2121726 -0.6309914 -0.26600832 156
-1.2125465 -0.62176365 -0.26513508 143
-1.209367 -0.61079824 -0.26338857 188
-1.2104697 -0.60206467 -0.26273364 191
-1.2097572 -0.59248364 -0.26164207 178
-1.2080934 -0.58251101 -0.26033217 181
-1.2072351 -0.57299894 -0.2592406 189
-1.2071902 -0.56393164 -0.25836736 184
-1.2053053 -0.55407286 -0.25705749 162
-1.2033453 -0.54425853 -0.25574759 193
-1.2039863 -0.53567696 -0.25509265 187
-1.203673 -0.5267176 -0.25421938 180
-1.2032952 -0.51778233 -0.25334615 173
-1.2028533 -0.50887161 -0.25247288 178
-1.2023474 -0.49998581 -0.25159964 213
-1.2017778 -0.49112549 -0.25072637 177
-1.2011451 -0.48229101 -0.24985312 170
-1.2004491 -0.47348285 -0.24897987 151
-1.2015111 -0.46540478 -0.24854325 180
-1.2016069 -0.45698544 -0.24788831 186
-1.2025591 -0.44892296 -0.24745168 189
-1.2034577 -0.44086605 -0.24701504 170
-1.2024655 -0.43215656 -0.24614179 221
-1.2041739 -0.42444667 -0.24592349 209
-1.2049103 -0.41641414 -0.24548686 173
-1.2028198 -0.40745181 -0.24439529 231
-1.2043709 -0.39975721 -0.24417697 226
-1.2058727 -0.39205891 -0.24395867 219
-1.2036048 -0.38317651 -0.2428671 169
-1.2031374 -0.37491569 -0.24221215 204
-1.2044815 -0.36724254 -0.24199384 197
-1.2039058 -0.35901102 -0.24133889 196
-1.2032746 -0.35080042 -0.24068396 229
-1.2025881 -0.34261113 -0.24002902 200
-1.2027869 -0.33470422 -0.23959239 185
-1.203876 -0.32706279 -0.23937407 174
-1.2039731 -0.3191714 -0.23893745 176
-1.2030737 -0.31104776 -0.2382825 219
-1.2011735 -0.30270961 -0.23740925 165
-1.2020603 -0.29510188 -0.23719095 207
-1.2000511 -0.28681678 -0.23631768 222
-1.1970347 -0.27834734 -0.23522612 177
-1.1996721 -0.27121153 -0.23544443 223
-1.2013136 -0.26384538 -0.23544443 213
-1.2019553 -0.25626668 -0.23522612 207
-1.204461 -0.24908353 -0.23544443 208
-1.2059666 -0.24168842 -0.23544443 228
-1.2074269 -0.23428419 -0.23544443 203
-1.2088417 -0.22687115 -0.23544443 192
-1.2121317 -0.219796 -0.23588106 207
-1.2134576 -0.21235436 -0.23588106 230
-1.2128129 -0.20458189 -0.23544443 194
-1.213082 -0.19698085 -0.23522612 195
-1.2113748 -0.18908502 -0.23457117 202
-1.2105817 -0.18136126 -0.23413455 225
-1.2087734 -0.1735166 -0.2334796 182
-1.2098153 -0.16609645 -0.2334796 214
-1.2098439 -0.15854415 -0.2332613 204
-1.2098255 -0.15099776 -0.23304299 230
-1.20976 -0.14345756 -0.23282467 225
-1.2125572 -0.13624802 -0.2332613 205
-1.2114294 -0.12860115 -0.23282467 199
-1.2121956 -0.12116554 -0.23282467 222
-1.2109729 -0.113545 -0.23238803 218
-1.2116468 -0.10611247 -0.23238803 215
-1.2113023 -0.098597705 -0.23216973 214
-1.2118845 -0.091163434 -0.23216973 220
-1.2124211 -0.083725736 -0.23216973 217
-1.2119379 -0.076224558 -0.23195142 185
-1.2133572 -0.068841159 -0.23216973 186
-1.2157061 -0.06149159 -0.23260635 210
-1.2170355 -0.054073393 -0.23282467 212
-1.2192948 -0.046677604 -0.2332613 235
-1.2185829 -0.039164849 -0.23304299 211
-1.2178246 -0.031662587 -0.23282467 196
-1.2199473 -0.024226466 -0.2332613 205
-1.2210488 -0.016753018 -0.2334796 207
-1.2211287 -0.0092604887 -0.2334796 200
-1.2211626 -0.0017676094 -0.2334796 243
-1.2211504 0.0057253363 -0.2334796 211
-1.2191406 0.013195095 -0.23304299 221
-1.2200124 0.020692825 -0.2332613 216
-1.2198625 0.028178291 -0.2332613 206
-1.2196666 0.035662696 -0.2332613 219
-1.2184496 0.04311033 -0.23304299 197
-1.2201122 0.050668608 -0.2334796 194
-1.2217277 0.058248915 -0.23391624 233
-1.2223217 0.065797575 -0.23413455 194
-1.2238432 0.073415063 -0.23457117 204
-1.2233697 0.080923043 -0.23457117 218
-1.2177385 -0.03021422 -0.24692695 195
-1.217901 -0.02274175 -0.24692695 234
-1.2199641 -0.015293458 -0.24738535 234
-1.2200351 -0.0078076096 -0.24738535 221
-1.2220068 -0.00032261512 -0.24784374 227
-1.2229592 0.0071808826 -0.24807295 215
-1.222892 0.014684684 -0.24807295 236
-1.2227789 0.022187931 -0.24807295 226
-1.2226198 0.029690344 -0.24807295 231
-1.2204686 0.037133068 -0.24761455 271
-1.2211906 0.04465628 -0.24784374 226
-1.2218661 0.052189745 -0.24807295 231
-1.2224951 0.059733182 -0.24830215 222
-1.2221056 0.067233145 -0.24830215 226
-1.2245848 0.074907929 -0.24898975 215
-1.2260445 0.082550578 -0.24944815 218
-1.2264857 0.090142928 -0.24967735 234
-1.2259095 0.097666807 -0.24967735 261
-1.2272269 0.10535289 -0.25013575 259
-1.2275265 0.11296992 -0.25036496 274
-1.2268103 0.12049976 -0.25036496 254
-1.2279842 0.12822661 -0.25082335 245
-1.2291093 0.13597241 -0.25128177 256
-1.2301855 0.14373682 -0.25174016 277
-1.2302465 0.15140098 -0.25196937 258
-1.2312251 0.1591958 -0.25242776 247
-1.233119 0.16713874 -0.25311536 233
-1.2339978 0.17497456 -0.25357375 230
-1.2357897 0.1829697 -0.25426137 237
-1.2384919 0.19114158 -0.25517815 247
-1.2401791 0.19919942 -0.25586575 242
-1.2408538 0.20712517 -0.25632417 244
-1.2433962 0.2153984 -0.25724095 276
-1.242051 0.22302368 -0.25724095 208
-1.2435304 0.23117337 -0.25792858 232
-1.2420884 0.23879918 -0.25792858 258
-1.2415546 0.24660534 -0.25815776 213
-1.2409717 0.2544139 -0.25838697 210
-1.2393873 0.26202357 -0.25838697 244
-1.2387074 0.26983026 -0.25861618 237
-1.2389281 0.27785116 -0.25907457 244
-1.239097 0.28588492 -0.25953296 238
-1.2392138 0.29393119 -0.25999138 231
-1.2421159 0.30268013 -0.26113737 206
-1.2430683 0.31100377 -0.26182497 197
-1.2420795 0.318867 -0.26205418 273
-1.2485721 0.32870999 -0.26411697 249
-1.2521707 0.33788466 -0.26549217 219
-1.2557036 0.34711584 -0.26686737 261
-1.2582333 0.35613823 -0.26801339 221
-1.2597646 0.36493412 -0.2689302 223
-1.2621684 0.37403846 -0.27007619 208
-1.263576 0.38290396 -0.27099299 211
-1.2639924 0.39151308 -0.27168059 213
-1.2652788 0.40043509 -0.2725974 212
-1.2655768 0.40908849 -0.273285 215
-1.2658162 0.41776058 -0.2739726 221
-1.2678417 0.42707187 -0.27511859 198
-1.2707211 0.43673983 -0.27649379 209
-1.2735294 0.44645911 -0.27786899 183
-1.2744327 0.45557445 -0.27878579 192
-1.2771013 0.46538365 -0.28016099 184
-1.277872 0.47456545 -0.2810778 194
-1.2776675 0.48343 -0.2817654 203
-1.279219 0.49300942 -0.28291142 157
-1.2779822 0.50155997 -0.28336981 173
-1.2812088 0.51191837 -0.28497422 124
-1.2987843 0.52819818 -0.29024583 41
-1.2685337 0.52499849 -0.28336981 6
-8.8511581 3.7243536 -2.2212591 25
-8.8182955 3.7743804 -2.2187378 50
-8.8119278 3.835798 -2.2230928 63
-8.796237 3.8933403 -2.2251556 51
-8.7961493 3.9580231 -2.231344 55
-8.784091 4.0175881 -2.2345526 45
-8.7654533 4.0742826 -2.2361572 40
-8.737648 4.1267428 -2.2354696 37
-8.7463894 4.1966991 -2.2444084 34
-8.7300987 4.2549777 -2.2469296 40
-8.6985922 4.3058734 -2.2455544 48
-8.6833143 4.3648486 -2.248534 41
-8.6251564 4.4021177 -2.2402828 47
-8.6247759 4.4688387 -2.2473879 30
-8.6118383 4.5293775 -2.2512844 46
-8.5959072 4.5885501 -2.2544932 40
-8.5752935 4.6453795 -2.256556 35
-8.439147 4.638835 -2.2276766 67
-8.4215765 4.696692 -2.2306564 55
-8.376503 4.739171 -2.2263014 75
-8.3582411 4.7967772 -2.2292812 88
-8.3362226 4.8523788 -2.231344 80
-8.2970715 4.897995 -2.2288227 69
-8.2100687 4.9148178 -2.213237 43
-8.0832338 4.9065166 -2.1866498 47
-7.9866562 4.9152112 -2.1683137 69
-7.9257903 4.9450607 -2.1598334 65
-7.8722639 4.979032 -2.1534159 47
-8.0898619 5.18641 -2.2228634 11
-7.1869764 4.6700916 -1.9783067 76
-7.119977 4.688942 -1.9675343 28
-6.9590988 4.6444716 -1.9301746 103
-6.9143434 4.6761789 -1.9255906 76
-6.8606286 4.7014604 -1.9184854 40
-6.7612896 4.6946177 -1.8983158 59
-6.6280613 4.6626544 -1.8682905 84
-6.5042028 4.6354494 -1.8407865 32
-6.490633 4.6860967 -1.8451413 14
-6.3784728 4.6649294 -1.8208461 53
-6.2926311 4.6616845 -1.8041145 104
-6.2234221 4.6698308 -1.792196 89
-6.1590014 4.6808381 -1.7816528 76
-6.0838819 4.68292 -1.7679007 77
-6.0181832 4.6914387 -1.7568991 83
-5.8601637 4.6263533 -1.7181642 27
-5.8438315 4.671948 -1.7218314 46
-5.7325888 4.6409621 -1.6968486 12
-5.6979823 4.6711125 -1.6950151 7
-0 0 -0 2
-0 0 -0 4
-0 0 -0 5
-0 0 -0 5
-0 0 -0 8
-0 0 -0 4
-0 0 -0 6
-0 0 -0 5
-0 0 -0 6
-0 0 -0 5
-2.6874838 2.5250051 -0.82840836 6
-0 0 -0 4
-0 0 -0 5
-0 0 -0 6
-0 0 -0 6
-0 0 -0 7
-0 0 -0 7
-0 0 -0 8
-0 0 -0 8
-0 0 -0 7
-2.3254101 2.4703221 -0.7589606 8
-2.3194895 2.4945226 -0.76216942 8
-2.3015056 2.5058405 -0.76125264 12
-2.2677717 2.4997315 -0.75483501 11
-2.2491426 2.509975 -0.75368899 15
-0 0 -0 5
-0 0 -0 5
-0 0 -0 5
-0 0 -0 4
-0 0 -0 4
-0 0 -0 4
-0 0 -0 4
-0 0 -0 3
-0 0 -0 4
-0 0 -0 4
-2.4037576 3.077038 -0.87952 4
-0 0 -0 4
-2.3905902 3.1388249 -0.88914645 18
-2.3707008 3.1526563 -0.88891727 22
-2.3536329 3.1702693 -0.88983405 28
-2.3318343 3.1815109 -0.88891727 18
-2.3111277 3.1941819 -0.88845885 16
-0 0 -0 3
-0 0 -0 3
-0 0 -0 5
-0 0 -0 3
-0 0 -0 5
-2.346251 3.5076532 -0.95378095 8
-2.3455992 3.5536642 -0.9627198 9
-0 0 -0 4
-2.3197072 3.6100214 -0.97051257 14
-2.3100224 3.6439161 -0.97601336 7
-2.3113649 3.6959827 -0.98655659 4
-2.2927322 3.7167225 -0.98839021 23
-2.2916424 3.7664754 -0.99824584 45
-0 0 -0 5
-0 0 -0 4
-0 0 -0 5
-0 0 -0 5
-0 0 -0 3
-0 0 -0 4
-0 0 -0 4
-0 0 -0 5
-0 0 -0 5
-0 0 -0 2
-0 0 -0 4
-0 0 -0 3
-0 0 -0 4
-0 0 -0 6
-0 0 -0 3
-0 0 -0 5
-0 0 -0 4
-0 0 -0 4
-0 0 -0 4
-0 0 -0 3
-0 0 -0 4
-0 0 -0 3
-0 0 -0 6
-0 0 -0 5
-0 0 -0 5
-0 0 -0 5
-0 0 -0 3
-0 0 -0 3
-0 0 -0 6
-0 0 -0 4
-0 0 -0 4
-0 0 -0 3
-1.4039389 3.9176488 -0.94002891 29
-1.382134 3.9326174 -0.94163334 17
-1.3595638 3.9456251 -0.94277936 18
-1.3347052 3.9520485 -0.94232094 14
-0 0 -0 4
-0 0 -0 4
-0 0 -0 4
-0 0 -0 4
-0 0 -0 5
-0 0 -0 5
-0 0 -0 3
-0 0 -0 3
-0 0 -0 6
-0 0 -0 6
-0 0 -0 4
-0 0 -0 5
-0 0 -0 4
-0 0 -0 4
-0 0 -0 4
-0.62637007 2.7059162 -0.614106 7
-0.60633385 2.694515 -0.61043876 30
-0.59436518 2.7191043 -0.6154812 13
-0.58009577 2.7341261 -0.61823159 6
-0.56271964 2.7347739 -0.617544 14
-0.54859519 2.751539 -0.62075281 6
-0.53170174 2.7548532 -0.62075281 7
-0 0 -0 3
-0 0 -0 4
-0 0 -0 3
-0 0 -0 3
-0 0 -0 3
-0 0 -0 4
-0 0 -0 3
-0 0 -0 4
-0 0 -0 4
-0 0 -0 3
-0 0 -0 4
-0 0 -0 4
-0 0 -0 3
-0 0 -0 4
-0 0 -0 5
-0 0 -0 3
-0 0 -0 3
-0 0 -0 5
-0 0 -0 3
-0 0 -0 5
-0 0 -0 4
-0 0 -0 4
-0 0 -0 4
-0 0 -0 3
-0 0 -0 7
-0 0 -0 5
-0 0 -0 4
-0 0 -0 3
-0 0 -0 4
-0.025861198 3.9045544 -0.87952 4
-0 0 -0 4
0.021742484 3.8481226 -0.86622638 5
0 0 -0 4
0.069344789 3.8689771 -0.87126881 8
0 0 -0 4
0 0 -0 4
0 0 -0 5
0 0 -0 6
0 0 -0 5
0 0 -0 4
0 0 -0 4
0 0 -0 5
0 0 -0 5
0 0 -0 4
0 0 -0 7
0 0 -0 4
0 0 -0 5
0 0 -0 3
0 0 -0 5
0.96058118 8.2407312 -1.9136722 9
1.0080441 8.2095623 -1.9077129 9
1.0565305 8.1887417 -1.9042749 7
1.1010168 8.1396627 -1.8941902 7
1.145759 8.0961304 -1.8854805 6
1.1932805 8.0745029 -1.8820425 10
1.2419132 8.0612574 -1.8806673 9
1.2882715 8.0342636 -1.8760834 10
1.3389843 8.0348482 -1.8781462 9
1.3812944 7.9861975 -1.8685197 9
1.419452 7.9172106 -1.8540801 9
1.4694251 7.916008 -1.8559136 14
1.5181526 7.9077988 -1.8561429 8
1.56532 7.8916512 -1.8545384 9
1.6111754 7.8695011 -1.8515589 17
1.6584262 7.8547049 -1.8504128 14
1.6997637 7.8129935 -1.8428493 7
1.7393756 7.7653728 -1.8339105 4
0 0 -0 5
1.8358837 7.7491264 -1.8352857 13
0 0 -0 5
0 0 -0 4
1.9692643 7.6791344 -1.8268052 10
2.0099099 7.6424303 -1.8208461 6
2.0537255 7.6186757 -1.8180957 12
2.0993979 7.6021781 -1.8171788 11
2.1510358 7.6069498 -1.8215337 13
2.1941535 7.5814528 -1.818554 10
2.2417362 7.5715804 -1.8194709 9
2.2830763 7.5409136 -1.8153452 14
2.3362088 7.5490799 -1.8208461 6
2.3792574 7.524394 -1.8183248 9
2.4131179 7.4716759 -1.8089277 8
2.4509935 7.4326935 -1.8029684 9
2.5008998 7.4304304 -1.8061773 11
2.5344329 7.3799615 -1.7974676 15
0 0 -0 8
2.6228411 7.3428044 -1.7960924 11
2.6685123 7.328402 -1.7965508 7
2.6978526 7.2699113 -1.7860075 18
2.7389672 7.2441158 -1.7837156 8
2.7844141 7.2298989 -1.7844032 13
2.8265913 7.2072406 -1.783028 13
2.8642647 7.1734891 -1.7789024 21
2.9016306 7.1395473 -1.7747767 10
2.9349682 7.0964231 -1.7683592 12
2.986383 7.0971222 -1.7731724 17
3.0042145 7.0187078 -1.757816 14
3.0592661 7.0278101 -1.7649212 7
3.0881488 6.9768624 -1.7566699 13
3.1293025 6.9542322 -1.7557532 17
3.1666512 6.9233923 -1.7527735 13
3.2078421 6.9011836 -1.7520859 15
3.2501266 6.881371 -1.7520859 12
3.2884991 6.8534007 -1.7500231 23
3.3151376 6.8015938 -1.7417719 14
3.3581045 6.7837415 -1.7424595 26
3.3917971 6.747354 -1.7383339 18
3.414551 6.690001 -1.7287074 14
3.4510581 6.6602812 -1.7264155 21
3.4905007 6.6363959 -1.7257279 19
3.512363 6.5796466 -1.7163306 19
3.5568414 6.5656743 -1.7183934 15
3.5975294 6.544579 -1.7186227 15
3.6333518 6.5147309 -1.7165599 26
3.6790085 6.502481 -1.7193103 24
3.6931608 6.435039 -1.7071626 20
3.7389414 6.4231935 -1.7101423 18
3.7678924 6.3825278 -1.7053291 22
3.8014846 6.3501015 -1.7028078 20
3.8287606 6.307518 -1.6975362 22
3.8719821 6.2913671 -1.699599 21
3.9079361 6.2633615 -1.6984531 33
3.9384897 6.2269249 -1.6950151 21
3.9834523 6.2132945 -1.6979946 33
4.0066524 6.1658812 -1.691577 20
4.0315623 6.1216702 -1.6860762 20
4.0593228 6.0822439 -1.6819506 25
4.0927491 6.0515776 -1.6803463 24
4.1287036 6.024745 -1.6798878 17
4.1628175 5.9953003 -1.6787418 33
4.1916857 5.958499 -1.6755329 25
4.2213888 5.9231548 -1.6727825 24
4.2530951 5.8908277 -1.670949 27
4.2799673 5.8520489 -1.6672817 25
4.3094211 5.8170733 -1.6647606 27
4.3415279 5.78585 -1.6633854 17
4.3769474 5.7591023 -1.6633854 13
4.4080462 5.726738 -1.661781 23
4.4383149 5.6934409 -1.6599474 20
4.4671345 5.6584606 -1.6576554 20
4.50177 5.6309443 -1.6576554 21
4.5270495 5.5918674 -1.6542174 20
4.5544877 5.5557036 -1.6516961 30
4.5884914 5.5276537 -1.6516961 18
4.6148071 5.4904528 -1.6489457 28
4.6503015 5.4642577 -1.6496333 31
4.6799297 5.4311967 -1.6482581 32
4.711247 5.4001784 -1.6475705 31
4.7507367 5.3784647 -1.6498625 46
4.7654824 5.3288965 -1.6434449 35
4.7765326 5.2757425 -1.6358813 30
4.7956605 5.2319832 -1.6312973 14
4.8230386 5.197464 -1.6296929 33
4.8575048 5.1706104 -1.6306098 30
4.8817611 5.1329494 -1.6280885 19
4.9057384 5.0951853 -1.6255673 17
4.9409857 5.0691705 -1.6269425 22
4.959691 5.0262856 -1.6228169 27
4.9897504 4.9950705 -1.6225877 15
5.0189214 4.9629908 -1.6221293 20
5.0423169 4.9253001 -1.6198373 19
5.0899539 4.9111657 -1.6255673 10
5.1051965 4.8657384 -1.6207541 16
5.1278691 4.8276496 -1.6184621 23
5.1780643 4.8153186 -1.625109 13
5.1888762 4.7663345 -1.6191497 25
5.2057695 4.7232866 -1.6152533 18
5.2281299 4.6854086 -1.6131905 18
5.2545938 4.6513057 -1.6125029 19
5.2720437 4.6093655 -1.6090648 19
5.2869668 4.5654783 -1.6049392 14
5.317102 4.5348473 -1.6056268 24
5.3373828 4.4958653 -1.6033349 16
5.3476586 4.4487123 -1.5980632 11
5.3816233 4.4213777 -1.600126 9
5.4222565 4.3993134 -1.6042516 20
5.4316773 4.3519607 -1.5989801 11
5.4643846 4.3233824 -1.6008136 16
5.4777703 4.2795839 -1.5969173 19
5.488513 4.2340007 -1.5923332 11
5.4934826 4.1843185 -1.5861448 7
5.5260549 4.155798 -1.5882076 13
5.556921 4.1258745 -1.589812 11
5.5758519 4.0870962 -1.5879785 11
5.6024022 4.0539479 -1.5884368 10
5.6200428 4.0144038 -1.586374 8
5.6254773 3.9663813 -1.5808733 8
5.6545019 3.9351258 -1.5822484 3
5.6488552 3.8799639 -1.573768 6
5.6765847 3.8479612 -1.574914 12
5.6928072 3.8081865 -1.5728512 14
5.709568 3.7688942 -1.5710176 8
5.7309546 3.7327275 -1.5705593 12
5.7537503 3.6974928 -1.5705593 13
5.7615328 3.6527364 -1.5664335 7
5.7830114 3.6167994 -1.5662044 9
5.7943258 3.5746031 -1.5632248 14
5.7978568 3.5278499 -1.5581824 16
5.8294096 3.4982195 -1.5609328 11
5.8407125 3.4564357 -1.5581824 10
5.8550854 3.4166076 -1.5563488 9
5.8615966 3.3723643 -1.5524523 6
5.8931851 3.3425784 -1.555432 9
5.9186811 3.309206 -1.5568072 12
5.9388747 3.2728274 -1.5568072 10
5.9605551 3.2372546 -1.5572656 11
5.9811645 3.2010798 -1.5574948 10
6.016191 3.1724932 -1.5616204 16
6.0130863 3.1238503 -1.5556612 10
6.033874 3.0877829 -1.5561196 7
6.045753 3.0471964 -1.554286 11
6.0573616 3.0065806 -1.5524523 10
6.0652018 2.9642272 -1.5497019 7
6.0832758 2.9269559 -1.5497019 14
6.0870457 2.8829076 -1.5460348 14
6.1099138 2.8479717 -1.54741 7
6.1201954 2.8071814 -1.5455763 6
6.1222224 2.7627683 -1.54168 6
6.1390595 2.7251511 -1.54168 6
6.1449604 2.6827571 -1.5389296 14
6.1478896 2.6392415 -1.5354916 12
6.1675549 2.602983 -1.5364083 8
6.1861076 2.5662098 -1.5370959 8
6.2017369 2.5282042 -1.5370959 12
6.2198439 2.4911895 -1.5377835 9
6.236824 2.453691 -1.538242 6
6.2435904 2.4122188 -1.5361792 12
6.2537236 2.3721371 -1.5350331 10
6.2754588 2.3364377 -1.5368668 8
6.2869339 2.296886 -1.5361792 11
6.2807508 2.2510407 -1.5311368 3
6.3063822 2.2166572 -1.5341164 8
6.3272266 2.1804578 -1.5359499 7
6.3367977 2.1403475 -1.5350331 13
6.3461151 2.1002018 -1.5341164 11
6.3533268 2.059422 -1.5327412 4
6.3686266 2.0212836 -1.5334288 11
6.3864865 1.9839013 -1.534804 12
6.4013333 1.9455265 -1.5354916 11
6.4047532 1.9037155 -1.5334288 10
6.4041624 1.8608494 -1.5304492 17
6.4201417 1.8228487 -1.5315951 14
6.4293294 1.7829008 -1.5311368 12
6.4110222 1.7355311 -1.5240315 12
6.4215508 1.696161 -1.5240315 19
6.4252391 1.6550273 -1.5224271 10
6.434329 1.6153345 -1.522198 15
6.445065 1.576055 -1.5224271 16
6.4593487 1.5376066 -1.5235732 13
6.4677134 1.4977242 -1.5233439 13
6.4862776 1.460149 -1.525636 15
6.4932127 1.4199065 -1.5251775 16
6.5065637 1.381049 -1.5263236 16
6.5234957 1.3428663 -1.5283864 27
6.5211124 1.3007185 -1.5258651 7
6.5232363 1.2595737 -1.5244899 17
6.5308423 1.2195241 -1.5244899 15
6.5420337 1.1801201 -1.5254067 15
6.5539465 1.1407917 -1.5265527 17
6.5541029 1.0994283 -1.5249484 14
6.5712957 1.0608995 -1.5274695 15
6.5824909 1.0213053 -1.5286155 10
6.5876708 0.9807533 -1.5283864 11
6.5916376 0.94003868 -1.5279279 18
6.5866723 0.89812821 -1.5254067 8
6.612329 0.86033481 -1.5302199 12
6.6174836 0.81974614 -1.5302199 10
6.615622 0.77833003 -1.5286155 14
6.6086645 0.73642838 -1.5258651 13
6.6217709 0.69678181 -1.5279279 5
6.6210785 0.65565836 -1.5267819 9
6.625946 0.61510986 -1.5270112 9
6.6247473 0.57402188 -1.5258651 5
6.622323 0.53289354 -1.5244899 10
6.6448822 0.49369329 -1.529074 6
6.6487575 0.45297799 -1.5293032 5
6.6475258 0.41193241 -1.5283864 13
6.6567311 0.37151629 -1.5299908 12
6.6559687 0.33051935 -1.5293032 11
6.6559267 0.28958812 -1.5288447 16
6.6371517 0.24797828 -1.5240315 10
6.6482773 0.20755313 -1.5263236 7
6.6649947 0.16714753 -1.5299908 9
6.6396184 0.12574951 -1.5238023 8
6.6519446 0.085157439 -1.5265527 7
6.6426082 0.044274811 -1.5242608 6
6.6495686 0.0035197134 -1.5258651 7
6.6329179 -0.037189551 -1.5219687 10
6.6004453 -0.077512413 -1.5144051 5
6.6251493 -0.11846145 -1.5203643 8
6.6301365 -0.15925026 -1.5217395 13
6.5842791 -0.1985819 -1.5111963 4
6.6276832 -0.24060024 -1.5217395 14
6.6289992 -0.28138608 -1.5224271 8
6.6271482 -0.32205555 -1.5224271 12
6.6318507 -0.363085 -1.5240315 12
6.6382422 -0.40430248 -1.5260943 7
6.6317515 -0.44476604 -1.5251775 22
6.6211314 -0.48488104 -1.5233439 6
6.6170616 -0.52542144 -1.5231147 17
6.625351 -0.56700838 -1.5258651 5
6.6042995 -0.60605007 -1.5217395 11
6.5965815 -0.64618254 -1.5208228 10
6.5934606 -0.68674701 -1.5210519 21
6.6152453 -0.73007214 -1.5272403 16
6.5903378 -0.76828313 -1.5224271 14
6.5999918 -0.81048495 -1.5258651 17
6.5891018 -0.85021943 -1.5244899 13
6.5837612 -0.8906334 -1.5244899 25
6.5916653 -0.93292266 -1.5276988 16
6.5810022 -0.9726395 -1.5265527 14
6.5826068 -1.0141867 -1.5283864 11
6.5839486 -1.0557903 -1.5302199 20
6.5850277 -1.0974485 -1.5320536 12
6.5781698 -1.1378328 -1.5320536 10
6.5624413 -1.1766287 -1.5299908 11
6.5646687 -1.2186489 -1.5322827 13
6.566627 -1.2607408 -1.5345747 11
6.5492196 -1.2991158 -1.5322827 12
6.5563831 -1.3423996 -1.5359499 13
6.5461178 -1.3822014 -1.5354916 14
6.5375137 -1.4223417 -1.5354916 11
6.529613 -1.462641 -1.5357207 11
6.5252581 -1.5037711 -1.5368668 14
6.5073838 -1.5417619 -1.534804 12
6.5100965 -1.5846535 -1.5377835 20
6.5021391 -1.6250408 -1.538242 16
6.5033603 -1.6678075 -1.5409924 19
6.4977117 -1.7089176 -1.5421383 12
6.4927425 -1.7502744 -1.5435135 18
6.4753127 -1.7882668 -1.5419091 20
6.4567251 -1.8258463 -1.5400755 12
6.4472704 -1.8659708 -1.5405339 12
6.4403663 -1.9068768 -1.54168 12
6.4350662 -1.9483323 -1.5432844 6
6.4053226 -1.9823139 -1.5389296 14
6.4116006 -2.0274472 -1.5435135 18
6.4027448 -2.0679464 -1.5444304 13
6.3954821 -2.1090226 -1.5458056 19
6.3916464 -2.1513295 -1.5480976 12
6.3912148 -2.1949329 -1.5513064 13
6.3794637 -2.2347507 -1.5517647 10
6.3665481 -2.2741797 -1.551994 14
6.356133 -2.3145332 -1.5529108 13
6.3418117 -2.3534904 -1.5529108 21
6.3308935 -2.3937354 -1.5538275 11
6.3124533 -2.4311368 -1.5529108 19
6.3073854 -2.4737322 -1.555432 16
6.2839518 -2.5091391 -1.5533692 24
6.271143 -2.5487487 -1.5540568 22
6.2535872 -2.5864358 -1.5535984 15
6.2393937 -2.6255133 -1.5540568 29
6.2204819 -2.6625993 -1.5533692 28
6.2067051 -2.7018826 -1.5540568 20
6.1953502 -2.7422791 -1.555432 18
6.1863966 -2.7838359 -1.5574948 22
6.1691985 -2.8217423 -1.5574948 21
6.1544166 -2.8607736 -1.5581824 21
6.1490698 -2.9043016 -1.5613912 18
6.1179695 -2.9356613 -1.5579532 12
6.1313419 -2.9884963 -1.5662044 29
6.1111445 -3.0251977 -1.5657459 14
6.0985551 -3.0656979 -1.5673504 20
6.0770288 -3.101733 -1.5666628 21
6.0596108 -3.139858 -1.5671211 20
6.0445385 -3.1792455 -1.5682672 16
6.0283523 -3.2181075 -1.5691839 15
6.0084925 -3.2550361 -1.5691839 15
6.0037613 -3.3002815 -1.5733097 19
5.987649 -3.3394282 -1.5744556 10
5.9653516 -3.3751462 -1.5739973 27
5.9571934 -3.4189525 -1.5774353 10
5.9302139 -3.4520133 -1.5758308 8
5.9189801 -3.4942729 -1.5785812 16
5.8840652 -3.5225265 -1.574914 4
5.8881359 -3.5742204 -1.5820192 9
5.8702393 -3.6128325 -1.5831652 10
5.8330956 -3.6395099 -1.5790396 11
5.8016047 -3.6695096 -1.5765184 18
5.7920914 -3.7134435 -1.5801857 19
5.7594023 -3.7425492 -1.5774353 9
5.7631574 -3.7954836 -1.5849988 16
5.733283 -3.8264518 -1.5831652 16
5.70889 -3.8610132 -1.582936 11
5.6995454 -3.9058733 -1.5870616 19
5.6850667 -3.9474328 -1.589812 15
5.6655159 -3.9856014 -1.5911872 23
5.6354051 -4.016335 -1.5895828 19
5.6256504 -4.0616627 -1.5939376 21
5.5896225 -4.0880609 -1.5907289 18
5.5620871 -4.120543 -1.5900413 14
5.550714 -4.1651087 -1.5941669 21
5.5459776 -4.2149901 -1.6003553 19
5.5122967 -4.2430034 -1.5980632 14
5.4976745 -4.2857223 -1.6015012 12
5.4896107 -4.3338494 -1.607002 8
5.4606342 -4.3656278 -1.6063144 9
5.4473629 -4.4100752 -1.61044 15
5.4247174 -4.4471192 -1.6118153 15
5.3995752 -4.4821858 -1.6125029 12
5.3764424 -4.51899 -1.6138781 19
5.3486133 -4.5518942 -1.6138781 15
5.3301692 -4.5928864 -1.6168576 11
5.3018875 -4.6255054 -1.6168576 11
5.273406 -4.6579504 -1.6168576 15
5.2447262 -4.6902194 -1.6168576 13
5.228116 -4.7334175 -1.6207541 9
5.1925159 -4.7594886 -1.6186913 16
5.1696362 -4.7972183 -1.6207541 13
5.1471982 -4.8355126 -1.623046 15
5.124485 -4.8737116 -1.6253381 23
5.1085086 -4.9185648 -1.6299222 22
5.0754442 -4.9471002 -1.6290053 18
5.0491514 -4.9822512 -1.6303805 21
5.0164199 -5.0110745 -1.6296929 19
4.9876313 -5.0438371 -1.6303805 26
4.9538684 -5.0715604 -1.6294637 18
4.9382024 -5.1179714 -1.6347353 22
4.9140935 -5.1559253 -1.6372565 18
4.8863688 -5.1902328 -1.6386317 12
4.8676882 -5.2343726 -1.6432158 19
4.8394299 -5.2684426 -1.644591 15
4.8057041 -5.2965956 -1.6441325 8
4.7705154 -5.3230839 -1.6432158 13
4.7435708 -5.3588142 -1.6452786 14
4.7093191 -5.386354 -1.6448201 13
4.6946306 -5.436512 -1.651467 19
4.6580262 -5.4615126 -1.6503209 16
4.6357155 -5.5033908 -1.6544466 13
4.6124434 -5.5444517 -1.658343 12
4.587606 -5.5839295 -1.661781 10
4.5612302 -5.6217995 -1.6647606 13
4.5284758 -5.6519599 -1.6654482 14
4.4888787 -5.673533 -1.6636145 10
