# .PCD v0.7 - Point Cloud Data file format
VERSION 0.7
FIELDS x y z intensity
SIZE 4 4 4 4
TYPE F F F F
COUNT 1 1 1 1
WIDTH 1545
HEIGHT 1
VIEWPOINT 0 0 0 1 0 0 0
POINTS 1545
DATA ascii
-3.5913758 -3.9681914 -1.157601 109
-3.5813665 -3.9086728 -1.1462486 90
-3.5833762 -3.863019 -1.1390443 113
-3.5869656 -3.8196223 -1.1324949 99
-3.5854504 -3.7713778 -1.1244173 117
-3.5909247 -3.7310297 -1.1187412 110
-3.5967209 -3.6914556 -1.1132833 139
-3.6138198 -3.6637602 -1.1115367 132
-3.6348529 -3.6401365 -1.1111002 112
-3.6203418 -3.581399 -1.0995295 28
-3.6799474 -3.5959392 -1.1113185 73
-3.6738505 -3.5461884 -1.1025859 912
-3.6856501 -3.5141535 -1.0995295 59
-3.7135382 -3.4974928 -1.1014943 36
-3.7835248 -3.51983 -1.1163397 6
-3.7640841 -3.4589202 -1.1038958 75
-3.8047509 -3.4534638 -1.1097903 137
-3.83023 -3.4339609 -1.1111002 107
-3.8687661 -3.4259176 -1.1163397 116
-3.9088163 -3.4188149 -1.1220158 116
-3.9474473 -3.4100733 -1.1272553 114
-4.0158181 -3.4263158 -1.1412274 57
-4.0300484 -3.3959525 -1.1392626 118
-4.0710664 -3.388011 -1.1451571 111
-4.1272187 -3.3920827 -1.1554178 115
-4.178268 -3.3912878 -1.1641504 73
-4.2241306 -3.3857222 -1.1713547 110
-4.2700815 -3.3797207 -1.1785591 95
-4.3314972 -3.3852975 -1.1901296 103
-4.3715048 -3.3735576 -1.1955875 99
-4.4161892 -3.365001 -1.2023553 93
-4.4687314 -3.3618879 -1.2113061 86
-4.5221844 -3.3588374 -1.2204752 90
-4.5804892 -3.3587179 -1.2309543 102
-4.6326365 -3.3534319 -1.2396868 119
-4.6880665 -3.3499002 -1.2492926 88
-4.7348533 -3.3396285 -1.256497 105
-4.7913013 -3.3355966 -1.2663211 108
-4.8470726 -3.3304446 -1.2759269 109
-4.9134607 -3.3318508 -1.2883707 121
-4.9703135 -3.3260555 -1.2981949 110
-5.0183201 -3.3137736 -1.3056176 111
-5.0949821 -3.3196676 -1.3206812 89
-5.1546631 -3.3136654 -1.3311602 109
-5.2169333 -3.3086224 -1.3422942 118
-5.2892628 -3.3091483 -1.356048 98
-5.3518262 -3.3027618 -1.367182 108
-5.4120078 -3.2942092 -1.377661 94
-5.4789791 -3.2890587 -1.3898866 92
-5.5586867 -3.2906637 -1.4053868 106
-5.6268177 -3.2845278 -1.4178307 103
-5.6891599 -3.2742722 -1.4287463 101
-5.7524347 -3.2638557 -1.4398804 110
-5.8038697 -3.2461181 -1.447958 93
-1.2245274 -0.67609197 -0.27321267 61
-1.2269377 -0.66763425 -0.27277604 76
-1.2198256 -0.65410739 -0.26993796 114
-1.2186369 -0.64387935 -0.26862809 126
-1.2182347 -0.63414049 -0.26753652 142
-1.2194965 -0.62531996 -0.26688159 128
-1.2145958 -0.61343348 -0.26469845 153
-1.2139663 -0.60380006 -0.26360688 185
-1.2150179 -0.59505451 -0.26295194 134
-1.2107316 -0.58378029 -0.26098713 169
-1.208999 -0.5738343 -0.25967723 205
-1.2098436 -0.56516844 -0.2590223 171
-1.2079664 -0.55529332 -0.25771242 164
-1.2051244 -0.54506129 -0.25618422 179
-1.2057703 -0.5364688 -0.25552928 161
-1.2045674 -0.52710801 -0.25443771 161
-1.2023985 -0.5173974 -0.25312784 171
-1.2037524 -0.509251 -0.25269121 218
-1.2032487 -0.50035971 -0.25181794 210
-1.2062963 -0.49296731 -0.25181794 168
-1.2065806 -0.48446789 -0.25116301 163
-1.2086223 -0.4766981 -0.2509447 189
-1.2069731 -0.46751478 -0.24985312 171
-1.2070816 -0.45906192 -0.24919818 169
-1.2016445 -0.4485825 -0.24723336 177
-1.2043744 -0.44120091 -0.24723336 191
-1.2015469 -0.43182734 -0.24592349 236
-1.1995705 -0.42282876 -0.24483192 186
-1.2002971 -0.41482452 -0.24439529 216
-1.1991216 -0.40620279 -0.24352203 169
-1.2006649 -0.39853087 -0.24330372 193
-1.2030877 -0.39115626 -0.24330372 203
-1.2017444 -0.38258612 -0.24243046 202
-1.2012734 -0.37433672 -0.24177553 221
-1.1998129 -0.36582381 -0.24090227 223
-1.1992286 -0.35762095 -0.24024732 190
-1.1967148 -0.34889454 -0.23915575 205
-1.1960167 -0.34074551 -0.23850082 192
-1.1943233 -0.33235747 -0.23762757 202
-1.1953982 -0.32476801 -0.23740925 190
-1.1964248 -0.31717789 -0.23719095 212
-1.1983485 -0.30983078 -0.23719095 206
-1.198334 -0.30199683 -0.23675431 196
-1.2030083 -0.29533365 -0.23740925 200
-1.2028991 -0.28749466 -0.23697263 220
-1.2036898 -0.27988827 -0.23675431 232
-1.2053845 -0.2724973 -0.23675431 206
-1.2041737 -0.26447073 -0.23609938 172
-1.2076831 -0.25748226 -0.236536 214
-1.2063726 -0.249477 -0.23588106 227
-1.2088377 -0.24226101 -0.23609938 209
-1.2074269 -0.23428419 -0.23544443 227
-1.2088417 -0.22687115 -0.23544443 200
-1.210211 -0.21944956 -0.23544443 204
-1.2096119 -0.21168508 -0.23500781 213
-1.2099255 -0.20409763 -0.23478949 203
-1.2101917 -0.19651432 -0.23457117 216
-1.2104104 -0.18893543 -0.23435286 210
-1.2115469 -0.18150494 -0.23435286 207
-1.2116717 -0.17392986 -0.23413455 214
-1.2117491 -0.16636008 -0.23391624 227
-1.2108116 -0.15867002 -0.2334796 206
-1.210794 -0.1511177 -0.2332613 217
-1.2116984 -0.14368556 -0.2332613 227
-1.2106174 -0.13603191 -0.23282467 209
-1.2133704 -0.12880534 -0.2332613 257
-1.2121956 -0.12116554 -0.23282467 216
-1.2129163 -0.11372536 -0.23282467 199
-1.2126189 -0.10619669 -0.23260635 198
-1.2132478 -0.098754197 -0.23260635 224
-1.2148041 -0.091380268 -0.23282467 254
-1.2143683 -0.083858348 -0.23260635 226
-1.212912 -0.076284885 -0.23216973 176
-1.2143315 -0.068895511 -0.23238803 237
-1.2166808 -0.061539967 -0.23282467 217
-1.2160605 -0.054031003 -0.23260635 236
-1.2183195 -0.046641193 -0.23304299 205
-1.2185829 -0.039164849 -0.23304299 208
-1.2188002 -0.031687029 -0.23304299 206
-1.2189717 -0.024208013 -0.23304299 184
-1.2181214 -0.016715623 -0.23282467 184
-1.2201529 -0.0092540113 -0.2332613 206
-1.2182349 -0.0017661403 -0.23282467 197
-1.2211504 0.0057253363 -0.2334796 207
-1.2152374 0.013149151 -0.23216973 177
-1.2209882 0.020710299 -0.2334796 211
-1.2208381 0.028201751 -0.2334796 220
-1.2206421 0.03569214 -0.2334796 218
-1.2204001 0.043181188 -0.2334796 206
-1.2210871 0.050710022 -0.23369792 221
-1.2227025 0.058296308 -0.23413455 214
-1.2223217 0.065797575 -0.23413455 228
-1.222869 0.073355712 -0.23435286 199
-1.2243433 0.08098837 -0.23478949 247
-1.2177385 -0.03021422 -0.24692695 232
-1.2198474 -0.022778729 -0.24738535 237
-1.2209375 -0.015305975 -0.24761455 235
-1.2229551 -0.0078272475 -0.24807295 230
-1.2239535 -0.00032376187 -0.24830215 238
-1.2239325 0.007186282 -0.24830215 238
-1.2248386 0.014707427 -0.24853136 244
-1.2266718 0.022257306 -0.24898975 264
-1.2274852 0.029806918 -0.24921896 226
-1.2282522 0.037367351 -0.24944815 254
-1.2279998 0.044903059 -0.24944815 204
-1.2286737 0.052478302 -0.24967735 226
-1.2293007 0.060063504 -0.24990655 249
-1.2279371 0.067552067 -0.24967735 264
-1.2265279 0.075026162 -0.24944815 233
-1.2241021 0.082420431 -0.24898975 237
-1.2235733 0.089929827 -0.24898975 251
-1.2229985 0.097435839 -0.24898975 252
-1.2223777 0.10493818 -0.24898975 222
-1.225588 0.11279214 -0.24990655 248
-1.2258415 0.12040492 -0.25013575 259
-1.227016 0.12812583 -0.25059414 249
-1.2291093 0.13597241 -0.25128177 226
-1.2292187 0.14362417 -0.25151095 258
-1.2292804 0.1512824 -0.25174016 260
-1.2292944 0.15894678 -0.25196937 242
-1.2302252 0.16674745 -0.25242776 241
-1.2291789 0.17429283 -0.25242776 231
-1.230975 0.18225843 -0.25311536 253
-1.2356058 0.19069709 -0.25449055 252
-1.2372957 0.19873723 -0.25517815 227
-1.2389334 0.20680526 -0.25586575 255
-1.2395595 0.21473502 -0.25632417 279
-1.242051 0.22302368 -0.25724095 252
-1.2416162 0.23081817 -0.25747016 252
-1.2420884 0.23879918 -0.25792858 212
-1.2405999 0.24641599 -0.25792858 224
-1.2409717 0.2544139 -0.25838697 239
-1.2403398 0.26222461 -0.25861618 251
-1.2415608 0.27045089 -0.25930378 243
-1.2417777 0.27848929 -0.25976217 220
-1.2428911 0.28675905 -0.26044977 242
-1.2439498 0.29505295 -0.26113737 240
-1.2449533 0.30337059 -0.26182497 224
-1.2468457 0.31194758 -0.26274177 238
-1.2477368 0.32031745 -0.26342937 246
-1.2485721 0.32870999 -0.26411697 245
-1.2512308 0.33763137 -0.26526299 232
-1.2528887 0.34633866 -0.26617977 220
-1.2535501 0.35481417 -0.26686737 235
-1.2532194 0.36304024 -0.26732579 258
-1.2556349 0.37210444 -0.26847178 226
-1.2570547 0.38092989 -0.26938859 220
-1.260273 0.3903622 -0.27076378 213
-1.2606384 0.39896798 -0.27145138 226
-1.2618717 0.40789205 -0.27236819 214
-1.2648917 0.41745579 -0.27374339 199
-1.2669191 0.42676142 -0.27488941 176
-1.2707211 0.43673983 -0.27649379 188
-1.2698548 0.4451721 -0.27695221 225
-1.2735161 0.45524707 -0.27855662 196
-1.2752719 0.46471766 -0.2797026 162
-1.2742217 0.47321102 -0.28016099 195
-1.2758466 0.48274159 -0.28130701 168
-1.2755855 0.49161029 -0.28199461 179
-1.2761699 0.50084925 -0.28291142 146
-1.2875367 0.51444465 -0.28657863 104
-1.2735347 0.5179379 -0.2838282 53
-0 0 -0 3
-8.8018122 3.7035923 -2.2086532 34
-8.8129263 3.7720826 -2.2173626 61
-8.7922926 3.8272519 -2.2180502 55
-8.7846661 3.8882191 -2.2221758 46
-8.8041391 3.9616175 -2.2334068 63
-8.779665 4.015564 -2.2334068 62
-8.7566261 4.0701799 -2.233865 33
-8.7314873 4.1238332 -2.233865 22
-8.712162 4.1802783 -2.2354696 25
-8.7178488 4.2490077 -2.2437208 38
-8.6994648 4.3063054 -2.2457836 50
-8.6580925 4.3521719 -2.2418871 43
-8.6234226 4.4012332 -2.2398243 49
-8.6757679 4.4952574 -2.2609107 17
-8.5808249 4.5130672 -2.2430332 23
-8.5924721 4.5867167 -2.2535763 30
-8.5145254 4.612464 -2.2402828 43
-8.4400005 4.6393037 -2.227906 60
-8.4215765 4.696692 -2.2306564 76
-8.3976831 4.751153 -2.2320316 76
-8.3742819 4.8059821 -2.2336359 59
-8.3496828 4.8602133 -2.2350111 71
-8.3029394 4.9014587 -2.230427 63
-8.200882 4.9093184 -2.210716 65
-8.0632629 4.8943958 -2.181149 56
-7.9883142 4.9162312 -2.1687722 81
-7.9249644 4.9445457 -2.1596043 71
-7.8755546 4.981113 -2.1543326 53
-8.2496567 5.2888455 -2.2675576 7
-7.1616735 4.6536517 -1.9712015 70
-6.9947824 4.6065021 -1.9322374 28
-6.9688144 4.6509552 -1.932925 89
-6.918375 4.6789055 -1.9267366 63
-6.7988009 4.6590953 -1.9008369 28
-6.7357035 4.6768541 -1.8909813 61
-6.6232843 4.6592946 -1.8669153 73
-6.5105448 4.6399689 -1.84262 31
-6.454329 4.6598883 -1.8345981 10
-6.3855438 4.6701007 -1.8229089 43
-6.2973242 4.6651607 -1.8054897 123
-6.1938353 4.6476326 -1.7834864 71
-6.1194763 4.6508021 -1.7699635 59
-6.0530272 4.659173 -1.7587327 75
-5.9813333 4.6627154 -1.7458975 58
-5.8708601 4.6347966 -1.7213731 23
-5.8407903 4.6695166 -1.7209146 53
-5.7401547 4.6470861 -1.6991407 10
-5.6430283 4.6260672 -1.6782833 7
-0 0 -0 5
-0 0 -0 4
-0 0 -0 4
-0 0 -0 4
-0 0 -0 6
-0 0 -0 4
-0 0 -0 3
-0 0 -0 5
-0 0 -0 5
-0 0 -0 5
-0 0 -0 5
-0 0 -0 7
-0 0 -0 4
-0 0 -0 7
-0 0 -0 7
-0 0 -0 7
-0 0 -0 6
-2.5038049 2.5635705 -0.80388391 12
-0 0 -0 6
-0 0 -0 8
-0 0 -0 7
-2.3652296 2.5437031 -0.77798426 9
-2.3285048 2.5352299 -0.77064985 8
-0 0 -0 6
-2.250442 2.5114248 -0.75414741 7
-0 0 -0 4
-0 0 -0 6
-0 0 -0 4
-0 0 -0 7
-0 0 -0 4
-0 0 -0 5
-0 0 -0 4
-0 0 -0 4
-0 0 -0 4
-0 0 -0 5
-0 0 -0 4
-0 0 -0 5
-2.3339648 3.0644917 -0.86714321 5
-2.3584139 3.1363201 -0.88410401 16
-2.3426073 3.155421 -0.88547921 24
-2.3266549 3.1744456 -0.88685441 25
-2.3077037 3.1894505 -0.88708365 15
-2.3095913 3.2336476 -0.89579326 6
-0 0 -0 4
-0 0 -0 3
-0 0 -0 5
-0 0 -0 4
-2.3608649 3.5294969 -0.95996934 15
-2.3665142 3.5853448 -0.97165859 7
-0 0 -0 3
-2.3323376 3.6296735 -0.97601336 16
-2.3225322 3.6636455 -0.98151422 8
-2.3154943 3.7025845 -0.98839021 4
-2.2952876 3.7208645 -0.98953623 17
-2.2875943 3.7598233 -0.99641222 27
-0 0 -0 4
-0 0 -0 4
-0 0 -0 4
-0 0 -0 4
-0 0 -0 5
-0 0 -0 5
-0 0 -0 4
-0 0 -0 7
-0 0 -0 3
-0 0 -0 4
-0 0 -0 4
-0 0 -0 3
-0 0 -0 3
-0 0 -0 4
-0 0 -0 4
-0 0 -0 5
-0 0 -0 3
-0 0 -0 5
-0 0 -0 4
-0 0 -0 3
-0 0 -0 4
-0 0 -0 5
-0 0 -0 5
-0 0 -0 3
-0 0 -0 4
-0 0 -0 6
-0 0 -0 4
-1.4785432 3.7586114 -0.91114968 3
-0 0 -0 3
-0 0 -0 2
-0 0 -0 5
-1.43363 3.9245028 -0.94392532 14
-1.4052527 3.9213138 -0.94094574 30
-1.3872993 3.94731 -0.94530052 13
-1.3659077 3.96403 -0.94736332 14
-1.3303437 3.9391382 -0.93911213 4
-1.3046192 3.9426064 -0.93796611 5
-0 0 -0 3
-0 0 -0 4
-0 0 -0 5
-0 0 -0 4
-0 0 -0 5
-0 0 -0 5
-0 0 -0 4
-0 0 -0 3
-0 0 -0 4
-0 0 -0 4
-0 0 -0 4
-0 0 -0 5
-0.68866885 2.8171597 -0.64298522 4
-0 0 -0 4
-0.6294452 2.719192 -0.61731476 18
-0.60783064 2.7011621 -0.61204314 39
-0.59436518 2.7191043 -0.6154812 15
-0.5732224 2.7017527 -0.61043876 14
-0.55800813 2.7118926 -0.61204314 7
-0.54059595 2.7114472 -0.61112636 12
-0 0 -0 5
-0 0 -0 4
-0 0 -0 3
-0 0 -0 3
-0 0 -0 3
-0 0 -0 4
-0 0 -0 4
-0 0 -0 3
-0 0 -0 4
-0 0 -0 6
-0 0 -0 3
-0 0 -0 4
-0 0 -0 4
-0 0 -0 5
-0 0 -0 4
-0 0 -0 3
-0 0 -0 5
-0 0 -0 3
-0 0 -0 5
-0 0 -0 3
-0 0 -0 4
-0 0 -0 4
-0 0 -0 3
-0 0 -0 4
-0 0 -0 5
-0 0 -0 6
-0 0 -0 5
-0 0 -0 7
-0 0 -0 4
-0.04958076 3.8858294 -0.87516522 4
-0.025697552 3.8802204 -0.87379003 3
-0.0019079768 3.9133999 -0.88158286 5
0.022088032 3.9104178 -0.88089526 3
0 0 -0 3
0.070818983 3.9517012 -0.89075083 15
0.094971567 3.9472997 -0.88983405 4
0 0 -0 7
0 0 -0 5
0 0 -0 4
0 0 -0 4
0 0 -0 6
0 0 -0 5
0 0 -0 5
0 0 -0 4
0 0 -0 3
0 0 -0 4
0 0 -0 4
0 0 -0 6
0 0 -0 3
0 0 -0 6
0 0 -0 6
1.0113645 8.2366142 -1.9141306 13
1.0590206 8.2080498 -1.908859 17
1.1057123 8.1743879 -1.9024414 10
1.152849 8.1462469 -1.8973989 7
1.1974059 8.1024284 -1.8886894 6
1.2459136 8.0872326 -1.8868557 7
1.2910447 8.0515633 -1.880209 7
1.3388243 8.0338888 -1.8779169 13
1.3802993 7.9804425 -1.8671445 8
1.4307859 7.9804459 -1.8692073 13
1.4779501 7.961946 -1.8669153 11
1.5273262 7.9555955 -1.8676029 9
1.5732721 7.9317522 -1.8641649 9
1.6189829 7.9076457 -1.860727 14
1.668277 7.9013724 -1.8616437 7
1.7123832 7.8710132 -1.8568305 9
1.7534144 7.828063 -1.8490376 9
1.7959502 7.7934437 -1.8433076 9
1.8457551 7.790802 -1.8453705 7
1.8831668 7.7367697 -1.8350564 10
0 0 -0 5
1.9782088 7.7140207 -1.8352857 9
2.0198109 7.6800857 -1.830014 10
2.0633507 7.6543899 -1.8268052 7
2.104579 7.6209435 -1.8217628 7
2.1438859 7.5816598 -1.8153452 10
2.1879308 7.5599475 -1.8132824 9
2.2251592 7.5155797 -1.8057188 11
2.2686939 7.4934001 -1.803656 7
2.3163562 7.4849181 -1.8050312 10
2.3625324 7.4714923 -1.8052604 6
2.4029484 7.4401822 -1.8011348 10
2.4537365 7.4410133 -1.8050312 11
0 0 -0 7
2.5360134 7.3845649 -1.7986135 9
2.5735545 7.346817 -1.7931128 12
2.6179304 7.3290544 -1.7926544 11
2.6528614 7.2854137 -1.7857784 11
2.6934507 7.2580481 -1.783028 14
2.7399998 7.2468476 -1.7844032 11
2.771822 7.1971974 -1.776152 15
2.8116667 7.1691804 -1.7734015 12
2.8501897 7.1382332 -1.7699635 12
2.8866065 7.1025748 -1.7653795 6
2.926785 7.0766339 -1.7633168 12
2.9652441 7.0468783 -1.7603371 6
3.0068953 7.024972 -1.7594203 17
3.0437276 6.9921098 -1.7557532 14
3.0743613 6.9457088 -1.7486479 15
3.1157234 6.9240513 -1.7479603 9
3.1569355 6.9021473 -1.7472727 13
3.1910219 6.8649931 -1.7426887 17
3.230175 6.8391228 -1.7410843 12
3.2720783 6.8191738 -1.7410843 11
3.3100204 6.7910933 -1.7390215 10
3.3373787 6.7418675 -1.7314578 20
3.3730004 6.7099566 -1.7284783 13
3.4083567 6.6778631 -1.7254987 14
3.4371772 6.6334887 -1.7193103 12
3.471925 6.6010742 -1.7163306 15
3.5192382 6.5925269 -1.7197686 14
3.5554504 6.5631065 -1.7177058 16
3.5890901 6.5292249 -1.7144971 14
3.6305075 6.5096297 -1.7151847 20
3.6627131 6.4736757 -1.7115175 19
3.7013969 6.4493914 -1.7110591 15
3.734045 6.4147811 -1.7078502 13
3.7634392 6.3749838 -1.7032663 12
3.8089836 6.3626289 -1.7062458 20
3.8398716 6.3258243 -1.7025787 17
3.8775935 6.3004861 -1.7021202 21
3.9094818 6.2658391 -1.6991407 21
3.9390101 6.2277474 -1.6952442 24
3.9661171 6.1862521 -1.690431 27
3.9933941 6.1454759 -1.685847 13
4.0272794 6.1151662 -1.6842426 24
4.0625644 6.0871019 -1.6833258 23
4.0911136 6.0491586 -1.6796585 22
4.1254025 6.019927 -1.6785126 21
4.1522703 5.9801087 -1.674387 20
4.1911254 5.9577026 -1.6753038 17
4.2253428 5.9287038 -1.674387 26
4.2639203 5.9058228 -1.6753038 14
4.2914586 5.867763 -1.6718658 22
4.3314376 5.8467956 -1.6734701 26
4.3578844 5.807651 -1.669803 19
4.4010935 5.7908773 -1.6727825 13
4.4323874 5.7583637 -1.6711782 14
4.4484878 5.7064919 -1.6638438 23
4.4773874 5.6714492 -1.6615517 21
4.5060244 5.6362662 -1.6592598 22
4.5203128 5.5835452 -1.6516961 31
4.5594244 5.5617261 -1.6535298 23
4.5816531 5.5194144 -1.6491749 38
4.6185646 5.4949241 -1.6503209 22
4.6446238 5.4575858 -1.6475705 25
4.678659 5.4297218 -1.6477997 27
4.7016492 5.3891754 -1.6441325 27
4.7230296 5.3470931 -1.6400069 27
4.7557502 5.3180122 -1.6400069 28
4.790904 5.2916179 -1.6409237 30
4.8068409 5.2441821 -1.6351937 25
4.8495212 5.226006 -1.6388609 27
4.8695002 5.1833811 -1.6347353 16
4.9085917 5.1611638 -1.6372565 31
4.9280162 5.1183257 -1.6331309 18
4.9572906 5.0859003 -1.6324433 15
4.9740477 5.0408363 -1.6276301 28
5.0138264 5.0191746 -1.6306098 17
5.020998 4.965044 -1.6228169 28
5.0785232 4.96067 -1.6317557 11
5.0794473 4.9010272 -1.6221293 32
5.1037869 4.8643951 -1.6202956 26
5.136373 4.8356566 -1.6212125 23
5.1502666 4.7894654 -1.61617 21
5.1609201 4.7406526 -1.6102109 15
5.185586 4.7049718 -1.6088357 13
5.217257 4.6756635 -1.6097524 17
5.2407465 4.6390467 -1.6081481 24
5.2559228 4.5952697 -1.6040225 14
5.2935967 4.5712042 -1.607002 17
5.3096962 4.5285301 -1.6033349 14
5.3440828 4.5015097 -1.6053977 16
5.3618755 4.4605408 -1.6024181 19
5.386888 4.4257035 -1.6017305 13
5.4139419 4.3925667 -1.6017305 13
5.4385138 4.3574386 -1.6010429 19
5.455225 4.3161345 -1.5980632 17
5.4854403 4.2855773 -1.5992093 17
5.5046968 4.2464871 -1.5971464 16
5.5221319 4.2061429 -1.5946252 16
5.5058293 4.1405859 -1.5822484 5
5.5639544 4.1310973 -1.5918748 17
5.5727119 4.0847945 -1.5870616 10
5.5968823 4.0499535 -1.5868324 9
5.6105385 4.0076137 -1.5836236 9
5.6063852 3.9529185 -1.5753725 5
5.6521053 3.9334576 -1.5815609 12
5.6616926 3.8887823 -1.5774353 13
5.6822243 3.8517847 -1.5765184 12
5.7041335 3.8157642 -1.5760601 8
5.7176914 3.7742572 -1.5733097 15
5.7407422 3.7391028 -1.5733097 12
5.7570257 3.6995978 -1.571476 15
5.7689309 3.6574275 -1.5684963 13
5.787138 3.6193802 -1.5673504 11
5.7959828 3.5756252 -1.5636832 16
5.8261285 3.5450547 -1.5659752 11
5.8252368 3.4957149 -1.5597868 12
5.847414 3.4604018 -1.560016 11
5.858448 3.41857 -1.5572656 11
5.881845 3.3840153 -1.5579532 7
5.900805 3.3469009 -1.5574948 12
5.9390712 3.3206077 -1.562308 9
5.9439898 3.2756464 -1.5581824 7
5.9579892 3.2358608 -1.556578 8
5.9742994 3.1974049 -1.5556612 7
5.9860568 3.1566005 -1.5535984 11
5.9966755 3.1153233 -1.5513064 7
6.0070128 3.0740352 -1.5490143 7
6.0231543 3.0358045 -1.5483267 12
6.024231 2.9901335 -1.5437428 6
6.053833 2.9586701 -1.5467224 13
6.0499454 2.9109168 -1.5409924 4
6.0879254 2.8833241 -1.5462639 13
6.0931516 2.840157 -1.5430552 5
6.1148872 2.8047462 -1.5442011 15
6.1248841 2.7639697 -1.5423676 4
6.1550727 2.7322607 -1.5458056 8
6.1654773 2.691716 -1.5442011 7
6.1827717 2.6542187 -1.5444304 11
6.1962514 2.6150963 -1.5437428 8
6.2085843 2.5755355 -1.5428259 8
6.2089477 2.5311441 -1.5389296 8
6.2279758 2.494447 -1.5398463 8
6.2504106 2.4590373 -1.54168 7
6.2644734 2.4202883 -1.5414507 7
6.2646446 2.3762803 -1.5377835 8
6.2845807 2.3398345 -1.5391587 10
6.2869339 2.296886 -1.5361792 6
6.2862482 2.2530115 -1.5325119 8
0 0 -0 5
6.3180242 2.1772859 -1.5336579 10
6.3174324 2.133805 -1.5302199 7
6.3442669 2.0995901 -1.5336579 5
6.3561044 2.0603228 -1.5334288 9
6.3612046 2.0189273 -1.5315951 11
6.3604593 1.9758145 -1.5283864 11
6.394814 1.9435447 -1.5338871 19
6.4103513 1.9053799 -1.534804 13
6.4191175 1.8651959 -1.5341164 16
6.4229507 1.8236464 -1.5322827 16
6.442461 1.7865431 -1.5343455 19
6.4533019 1.7469792 -1.5343455 11
6.4582529 1.7058579 -1.5329703 15
6.464828 1.6652272 -1.5320536 12
6.490973 1.6295586 -1.5359499 8
6.4800487 1.5846121 -1.5309075 20
6.4943843 1.5459487 -1.5320536 15
6.5009027 1.5054119 -1.531366 24
6.5185637 1.4674193 -1.5334288 18
6.5245924 1.4267704 -1.5327412 14
6.5237026 1.3846879 -1.5304492 15
6.5244489 1.3430626 -1.5286155 15
6.5440221 1.3052896 -1.531366 19
6.550952 1.264927 -1.5311368 14
6.5681586 1.2264947 -1.5334288 8
6.5621495 1.1837502 -1.5302199 22
6.5683308 1.1432962 -1.5299908 21
6.575222 1.1029723 -1.5299908 20
6.5847487 1.0630722 -1.5306784 6
6.5930715 1.0229475 -1.5311368 9
6.6088514 0.98390788 -1.5334288 11
6.6080189 0.94237584 -1.5318244 7
6.6204281 0.90273303 -1.5334288 14
6.6219816 0.86159128 -1.5325119 8
6.6165175 0.81962639 -1.5299908 17
6.6107883 0.7777611 -1.5274695 8
6.6144691 0.73707557 -1.5272403 16
6.6062827 0.69515109 -1.5242608 9
6.6094551 0.65450662 -1.5240315 9
6.6055927 0.6132192 -1.522198 8
6.6121407 0.57292873 -1.5228856 7
6.6242633 0.53304982 -1.5249484 5
6.6109076 0.49116704 -1.5210519 10
6.6341906 0.45198467 -1.5258651 9
6.6193519 0.41018483 -1.5217395 9
6.6198001 0.36945295 -1.5212811 12
6.6180539 0.32863432 -1.5203643 8
6.6238356 0.28818998 -1.5212811 17
6.636179 0.24794188 -1.5238023 13
6.6346564 0.20712709 -1.5231147 11
6.6552639 0.16690293 -1.5276988 9
6.6259937 0.12549067 -1.5205935 8
6.6344252 0.084932111 -1.5224271 7
6.6377416 0.04424208 -1.5231147 9
6.6417813 0.0035151264 -1.5240315 11
6.6407046 -0.037232745 -1.5238023 10
6.6384048 -0.077955902 -1.5233439 7
6.6358547 -0.11865223 -1.5228856 12
6.655437 -0.15985645 -1.5276988 4
6.653358 -0.20066115 -1.5274695 9
6.6510286 -0.24144635 -1.5272403 10
6.6640096 -0.28287008 -1.5306784 5
0 -0 -0 5
6.6512895 -0.36414805 -1.5286155 10
6.6372705 -0.40424335 -1.5258651 11
0 -0 -0 5
6.6405473 -0.48630175 -1.5279279 10
6.6325865 -0.52665329 -1.5267819 7
6.6408687 -0.56833547 -1.5295323 20
6.6508265 -0.61031681 -1.5327412 8
6.6333942 -0.64978635 -1.5295323 11
6.6379957 -0.69138283 -1.5315951 20
6.6287909 -0.73156619 -1.5304492 23
6.6087079 -0.77042347 -1.5267819 21
6.5999918 -0.81048495 -1.5258651 9
6.6006866 -0.85171354 -1.5272403 14
6.6078763 -0.89389414 -1.5302199 20
6.6003394 -0.93414974 -1.5297616 22
6.5935202 -0.97448885 -1.5295323 15
6.5960751 -1.0162611 -1.5315951 12
6.5935597 -1.057331 -1.5325119 13
6.5965495 -1.099368 -1.534804 5
6.5963936 -1.1409838 -1.5364083 9
6.5883107 -1.1812654 -1.5361792 9
6.5665827 -1.2190042 -1.5327412 7
6.5618472 -1.2598234 -1.5334288 8
6.5635414 -1.3019558 -1.5357207 11
6.5487542 -1.3408381 -1.5341164 14
6.5461178 -1.3822014 -1.5354916 6
6.5375137 -1.4223417 -1.5354916 9
6.5258136 -1.4617902 -1.534804 11
6.5110302 -1.500493 -1.5334288 7
6.4988594 -1.5397427 -1.5327412 6
6.4864521 -1.5788995 -1.5320536 13
6.4766421 -1.61867 -1.5320536 13
6.4722452 -1.6598299 -1.5334288 18
6.4534664 -1.6972839 -1.531366 5
6.4607878 -1.7416623 -1.5357207 14
6.4631152 -1.784899 -1.5389296 19
6.4286251 -1.817902 -1.5331995 10
6.4201546 -1.8581247 -1.5338871 10
6.4310327 -1.904114 -1.5393879 12
6.424818 -1.9452302 -1.5407631 19
6.4109015 -1.9840401 -1.5403048 17
6.4218097 -2.0306749 -1.5460348 12
6.4194179 -2.0733304 -1.548556 14
6.4010291 -2.1108513 -1.5471808 16
6.3925691 -2.1516399 -1.5483267 15
6.4031825 -2.1990423 -1.554286 19
6.3748703 -2.2331419 -1.5506188 14
6.3592148 -2.2715607 -1.5501604 19
6.3524742 -2.3132014 -1.551994 13
6.3272099 -2.3480725 -1.5492436 11
6.3099523 -2.3858187 -1.548556 14
6.2833853 -2.4199438 -1.5455763 16
6.2892613 -2.4666255 -1.550848 14
6.2685838 -2.5030038 -1.5494728 13
6.2603221 -2.5443516 -1.5513064 14
6.2607832 -2.5894115 -1.555432 27
6.2501602 -2.6300433 -1.5568072 26
6.2473283 -2.6740885 -1.5602452 26
6.2343726 -2.7139249 -1.561162 20
6.216713 -2.7517333 -1.5609328 18
6.1979361 -2.7890277 -1.5604744 18
6.184247 -2.8286245 -1.5613912 20
6.1614785 -2.8640554 -1.560016 24
6.1455493 -2.9026389 -1.5604744 19
6.1390324 -2.9457664 -1.563454 19
6.1147165 -2.9803944 -1.5618496 20
6.1041656 -3.0217435 -1.5639124 20
6.0898581 -3.0613267 -1.5650584 15
6.0761614 -3.1012905 -1.5664335 19
6.0647964 -3.1425447 -1.5684963 12
6.0505691 -3.1824169 -1.5698715 18
6.0231996 -3.2153573 -1.5678087 19
6.0007896 -3.2508638 -1.5671211 11
5.9790239 -3.286685 -1.5666628 19
5.9604449 -3.3242579 -1.5671211 20
5.9475603 -3.3650813 -1.5691839 15
5.9293332 -3.4029651 -1.5698715 11
5.9234838 -3.448096 -1.5739973 7
5.9089212 -3.4883354 -1.5758308 9
5.9032745 -3.5340247 -1.5801857 9
5.8764868 -3.5671499 -1.5788105 9
5.8660941 -3.6102819 -1.5820192 12
5.8413539 -3.6446621 -1.5813316 14
5.8295755 -3.6871989 -1.5843112 12
5.7945495 -3.7150195 -1.5808733 17
5.7789917 -3.7552772 -1.582936 14
5.7590928 -3.7928069 -1.5838529 16
5.7300444 -3.8242905 -1.5822484 12
5.7209849 -3.8691921 -1.586374 15
5.7011514 -3.9069736 -1.58752 21
5.6802692 -3.944102 -1.5884368 23
5.6583505 -3.9805615 -1.5891244 14
5.6520514 -4.0281978 -1.594396 15
5.6288071 -4.063942 -1.5948545 12
5.6006227 -4.0961046 -1.5939376 27
5.5800767 -4.1338687 -1.5953128 16
5.5647287 -4.1756239 -1.5982925 20
5.5421028 -4.2120452 -1.5992093 14
5.5122967 -4.2430034 -1.5980632 13
5.4923 -4.2815337 -1.5998969 12
5.4804425 -4.326612 -1.6042516 13
5.4606342 -4.3656278 -1.6063144 15
5.4405537 -4.4045634 -1.6083772 20
5.418695 -4.4421825 -1.6099817 8
5.3973284 -4.4803209 -1.6118153 9
5.3734617 -4.5164852 -1.6129613 9
5.3441653 -4.5481095 -1.6125029 14
5.3227949 -4.5865331 -1.6145657 8
5.293819 -4.6184669 -1.6143365 10
5.2770538 -4.6611719 -1.6180037 9
5.2715735 -4.7142258 -1.6253381 7
5.2086325 -4.7157798 -1.6145657 13
5.1817517 -4.7496233 -1.6152533 14
5.1589332 -4.7872872 -1.6173161 27
5.134428 -4.8235168 -1.6189204 20
5.1167259 -4.8663335 -1.6228169 22
5.0944839 -4.9050632 -1.6253381 22
5.0635939 -4.9355507 -1.625109 21
5.0346003 -4.9678946 -1.6255673 19
5.0136647 -5.0083232 -1.6287761 19
4.9801021 -5.0362239 -1.6278594 18
4.9552283 -5.0729527 -1.6299222 23
4.9307675 -5.1102667 -1.6322141 15
4.8986468 -5.1397204 -1.6319849 14
4.865016 -5.1675549 -1.6312973 10
4.8259254 -5.1894684 -1.6287761 6
4.8130894 -5.2397699 -1.6354229 16
4.7762694 -5.2641578 -1.6338185 19
4.7510257 -5.3013387 -1.6363397 16
0 -0 -0 6
3.7725761 -4.3150601 -1.3097292 8
3.7403023 -4.3314967 -1.3076663 13
3.7136543 -4.3543653 -1.3076663 18
3.6392045 -4.3204932 -1.2902471 62
3.6082683 -4.3375039 -1.2886428 69
3.5747883 -4.3512897 -1.2861215 65
3.541889 -4.3655834 -1.2838296 57
3.5095575 -4.3803978 -1.2817668 74
3.4795938 -4.3980331 -1.2806207 59
3.4495459 -4.4154654 -1.2794747 78
3.4265504 -4.4419432 -1.2810791 71
3.4027696 -4.4675303 -1.2824544 64
3.3770485 -4.4906588 -1.283142 51
3.3505914 -4.5128584 -1.2836003 55
3.3234136 -4.5341172 -1.2838296 36
3.2978127 -4.5575781 -1.2847463 27
3.2680886 -4.5753512 -1.2840587 47
3.2472456 -4.605659 -1.2870383 33
3.2244852 -4.6334863 -1.2893304 34
3.2070167 -4.6692305 -1.2939143 36
3.1854072 -4.6992946 -1.296894 4
3.163008 -4.7284594 -1.2996444 8
3.1457334 -4.7656493 -1.3046868 14
3.120683 -4.7913861 -1.3065203 16
3.102803 -4.8284588 -1.3115628 75
3.0866699 -4.8687797 -1.3175219 64
3.0737717 -4.9148602 -1.3250856 33
3.0450902 -4.9361134 -1.3257732 24
3.0192995 -4.9621882 -1.327836 52
2.9973109 -4.9948092 -1.3317324 30
2.9720604 -5.0223207 -1.3342535 29
2.9510007 -5.0572758 -1.3388376 53
2.927196 -5.0879431 -1.3422756 70
2.8983233 -5.1100411 -1.3434216 50
2.8901927 -5.1693578 -1.3546524 29
2.8809724 -5.2279134 -1.3656541 14
2.8562741 -5.2591777 -1.3693212 16
2.8285441 -5.2851858 -1.3716133 16
2.8028729 -5.3153567 -1.3750513 9
2.7693081 -5.3307271 -1.3745929 9
0 -0 -0 6
0 -0 -0 5
2.6867318 -5.4130569 -1.3830733 30
2.6671457 -5.4574246 -1.3904077 132
2.6437395 -5.4947376 -1.3959085 165
2.6241422 -5.5407648 -1.4037013 197
2.594208 -5.5655842 -1.4059933 162
2.5660975 -5.5946684 -1.4094313 165
2.544935 -5.6395855 -1.4169949 189
2.5118632 -5.6586537 -1.4179118 172
2.4841063 -5.6900163 -1.4220374 153
2.4837091 -5.7856493 -1.4426653 84
2.4598968 -5.8285799 -1.4497706 37
2.4255791 -5.8471599 -1.4506874 25
2.3995786 -5.8862691 -1.4568758 26
2.3724649 -5.923471 -1.4626058 12
2.3439157 -5.9578438 -1.4676483 13
0 -0 -0 5
2.2947962 -6.0498648 -1.4836923 5
2.262727 -6.0775142 -1.4871303 9
2.2397587 -6.1305966 -1.4969859 8
2.2218077 -6.1992011 -1.5107379 9
2.195673 -6.2466936 -1.5192183 4
2.1684046 -6.2922573 -1.5272403 10
2.1883247 -6.4788132 -1.57033 10
2.1203897 -6.407104 -1.5492436 17
2.1089551 -6.5061054 -1.5705593 10
2.0719397 -6.5282006 -1.5728512 13
2.0803654 -6.6969543 -1.6113569 9
2.1776731 -7.1649985 -1.7234359 10
2.1311722 -7.1698284 -1.7213731 6
2.1039815 -7.2407217 -1.7355835 13
2.070682 -7.2928219 -1.7452099 15
2.025635 -7.3044524 -1.7449807 5
0 -0 -0 7
1.9365915 -7.331583 -1.7456683 3
0 -0 -0 5
1.8215836 -7.2556691 -1.7216023 10
1.7224495 -7.04357 -1.667511 12
1.6676998 -7.0057139 -1.6558218 15
1.6238036 -7.0120215 -1.654905 15
1.5786098 -7.0123572 -1.6526129 15
1.538673 -7.0361748 -1.6560509 8
1.5179105 -7.1511726 -1.6814922 33
1.491475 -7.2452025 -1.7018911 33
1.464323 -7.3410826 -1.7227483 13
1.4460182 -7.4885082 -1.7559823 9
0 -0 -0 4
0 -0 -0 5
0 -0 -0 4
1.2986947 -7.74157 -1.8084692 8
1.2578423 -7.7907128 -1.8183248 5
1.2112101 -7.8059788 -1.8201585 9
1.1611398 -7.7988224 -1.8167204 6
0 -0 -0 5
1.0696906 -7.8443108 -1.8242841 8
1.0148793 -7.7995691 -1.8121364 11
0.97059464 -7.8346295 -1.8190124 10
0.92091089 -7.8269033 -1.8158036 4
0 -0 -0 4
0.82642412 -7.8531036 -1.8194709 6
0.7833097 -7.9093642 -1.8316184 15
0.73674476 -7.9353442 -1.8366609 38
0.69123572 -7.9765654 -1.8453705 38
0.63923228 -7.9428172 -1.8364316 20
0.59257716 -7.9747405 -1.8430785 38
0.54403126 -7.9840531 -1.8444537 44
0.49641776 -8.0095854 -1.8497252 44
0.44840279 -8.0328903 -1.8545384 55
0.3987188 -8.0277128 -1.8527049 29
0.34886104 -8.0163937 -1.8494961 45
0.30166882 -8.0718813 -1.8621022 38
0.25240889 -8.0823374 -1.8641649 40
0.2031543 -8.0973568 -1.8673737 33
0.15337357 -8.093585 -1.8662277 38
0.10389716 -8.1089725 -1.8696657 28
0.054211486 -8.1201649 -1.8721869 36
0.0043757511 -8.1028233 -1.8680613 30
-0.045617681 -8.152339 -1.8797505 33
-0.09544532 -8.1353598 -1.8758541 25
-0.14541318 -8.1375408 -1.8765417 33
-0.19625074 -8.1744461 -1.8854805 29
-0.24731234 -8.203249 -1.8925858 28
-0.29827645 -8.2190866 -1.8967113 20
-0.34965032 -8.2394695 -1.901983 18
-0.40053049 -8.2439747 -1.9035873 22
-0.44754574 -8.1762428 -1.8882309 12
-0.50166655 -8.2384386 -1.9035873 21
-0.54843283 -8.1788759 -1.8902937 12
-0.60443193 -8.254961 -1.9090881 24
-0.65661186 -8.270503 -1.9136722 21
-0.70759517 -8.269228 -1.9143598 34
-0.75974315 -8.2802401 -1.918027 36
-0.81110448 -8.2812347 -1.9194022 29
-0.86301047 -8.2867517 -1.9219234 23
-0.91565496 -8.2977476 -1.9258198 19
-0.96767831 -8.3016415 -1.9281118 16
-1.0196652 -8.3042431 -1.9301746 23
-1.071596 -8.3055534 -1.9320083 19
-1.1246246 -8.3142557 -1.9356754 21
-1.1718011 -8.2802124 -1.9292579 14
-1.2281334 -8.310421 -1.9381967 23
-1.2836952 -8.332552 -1.9453019 20
-1.3357229 -8.3302851 -1.9466771 19
-1.3892108 -8.3363342 -1.9501151 36
-1.4383453 -8.316144 -1.9473647 21
-1.4917494 -8.3205748 -1.9505734 29
-1.542953 -8.3122225 -1.9508027 25
-1.5977796 -8.3226728 -1.9556159 25
-1.6474912 -8.3060293 -1.9540114 29
-1.7015481 -8.3110218 -1.9576787 26
-1.7597488 -8.3347111 -1.9659299 31
-1.8114772 -8.3266096 -1.9666175 23
-1.8621087 -8.3134384 -1.9661591 49
-1.9128655 -8.3009071 -1.9659299 32
-1.9556863 -8.2549162 -1.9576787 37
-2.0010071 -8.2210083 -1.952407 45
-2.0731206 -8.295455 -1.9734935 270
-2.131959 -8.313694 -1.981057 329
-2.1908517 -8.3305798 -1.9883915 325
-2.246232 -8.3329573 -1.9922879 280
-2.2931747 -8.3040056 -1.9886208 290
-2.3496451 -8.3094492 -1.993434 225
-2.4095149 -8.3257313 -2.0009975 265
-2.4613841 -8.31359 -2.0016851 220
-2.5151691 -8.3076468 -2.0039771 287
-2.5695491 -8.303216 -2.0067275 358
-2.6219156 -8.291934 -2.0078735 230
-2.6769321 -8.2886581 -2.0110824 299
-2.7408457 -8.3118277 -2.0209379 207
-2.7992454 -8.3169947 -2.0264387 149
-2.8546503 -8.3125505 -2.0296476 186
-2.8949838 -8.2645626 -2.022084 262
-2.9541514 -8.2704773 -2.0280433 232
-3.0075066 -8.2595119 -2.0298767 187
-3.0601611 -8.2463789 -2.0312519 238
-3.1158652 -8.2411041 -2.0346899 245
-3.1695211 -8.2300053 -2.0367527 253
-3.226356 -8.2267141 -2.0408783 171
-3.2796607 -8.213995 -2.042712 182
-3.3373277 -8.2117519 -2.047296 118
-3.3895111 -8.1956177 -2.0484421 125
-3.4359598 -8.1656933 -2.04615 93
-3.4802544 -8.1310339 -2.042712 75
-3.5168722 -8.0791817 -2.0349193 56
-3.5624397 -8.0485487 -2.0326271 39
-3.6373181 -8.0833492 -2.047296 59
-3.687253 -8.0617647 -2.0475252 55
-3.7378805 -8.0416365 -2.0482128 39
-3.763876 -7.9692602 -2.0353775 24
-3.8421769 -8.0074482 -2.0514216 39
-3.8895316 -7.9802217 -2.0505049 41
-3.9259024 -7.9309072 -2.0438581 29
-3.9884796 -7.9344997 -2.0511925 43
-4.0357623 -7.9072762 -2.0505049 36
-4.0725627 -7.8598933 -2.0445457 22
-4.133399 -7.8588791 -2.0509632 32
-4.2072096 -7.8814569 -2.0637984 40
-4.2578082 -7.8597732 -2.0649445 37
-4.3017349 -7.8258224 -2.0628817 28
-4.3762202 -7.8468876 -2.075717 29
-4.4137416 -7.801249 -2.0706744 23
-3.6384161 -6.3396387 -1.681263 32
-3.6586406 -6.2852268 -1.6725534 61
-3.7085173 -6.281939 -1.677825 122
-3.7414937 -6.2498784 -1.6753038 102
-3.7550247 -6.1860304 -1.664073 84
-3.6776199 -5.9755211 -1.6122737 52
-3.6745443 -5.8892531 -1.5946252 37
-3.6903205 -5.8345113 -1.5856864 37
-3.7024119 -5.7748823 -1.5753725 65
-3.7298214 -5.7398129 -1.5719345 46
-3.7558694 -5.7029986 -1.568038 60
-3.789711 -5.6782265 -1.5675796 52
-3.8337502 -5.6685739 -1.571476 33
-3.858556 -5.6304903 -1.5673504 45
-3.9824052 -5.7354398 -1.6042516 41
-4.1116037 -5.8446493 -1.6427573 60
-3.9502437 -5.5426593 -1.5627664 16
-3.9904456 -5.526998 -1.5652876 24
-4.0191121 -5.4953375 -1.5632248 13
-3.5950446 -4.8526616 -1.3821565 68
-3.6107323 -4.8118253 -1.3766557 100
-3.5877738 -4.7206044 -1.3562568 71
-3.5911431 -4.6653328 -1.3464012 67
-3.5891831 -4.6040568 -1.334712 55
-3.5775607 -4.5315213 -1.3195847 62
-3.5615382 -4.4547424 -1.3030823 81
-3.5630829 -4.4010291 -1.293456 91
-3.5659547 -4.3497248 -1.2845172 81
-3.5701969 -4.3007989 -1.2762659 95
-3.5633273 -4.2393174 -1.2641183 113
-3.5577316 -4.1803083 -1.2526582 104
-3.5559945 -4.1266904 -1.2428026 104
-3.5646119 -4.085722 -1.2368435 102
-3.568995 -4.0404267 -1.229509 128
-3.5703621 -3.9923301 -1.2212578 111
-3.5771534 -3.9508641 -1.2150694 122
-3.581598 -3.9073129 -1.2081934 119
-3.5724022 -3.849586 -1.1967334 151
-3.5812941 -3.8119855 -1.1916909 144
-3.5905304 -3.7751267 -1.1868777 161
-3.5818977 -3.7200665 -1.1761054 116
-3.5903893 -3.6833799 -1.1712921 126
-3.5985661 -3.6467295 -1.1664789 99
-3.6105561 -3.6142502 -1.1630409 74
-3.6174388 -3.5769701 -1.1579984 107
-3.6302669 -3.5458641 -1.1550189 81
-3.6582596 -3.5296056 -1.1570817 35
-3.6784389 -3.5057492 -1.1566232 61
-3.7083845 -3.4911201 -1.1593738 64
-3.7397146 -3.4775808 -1.1625825 50
-3.7624159 -3.4558859 -1.1630409 82
-3.7914791 -3.4399302 -1.1655622 102
-3.8284612 -3.4308941 -1.1706045 87
-3.864017 -3.4202428 -1.1751885 76
-3.9025168 -3.4118466 -1.1806893 88
-3.9587386 -3.4183755 -1.1916909 74
-3.9951906 -3.4072862 -1.1965041 75
-4.0271883 -3.3921151 -1.1999422 75
-4.0613952 -3.3785467 -1.2040678 69
-4.1091232 -3.375809 -1.212319 63
-4.1637726 -3.3781319 -1.222633 67
-4.2140465 -3.3762581 -1.2315718 57
-4.2705593 -3.3787258 -1.2423443 69
-4.3172884 -3.3728347 -1.2501371 64
-4.3602519 -3.363524 -1.2567838 56
-4.4063601 -3.3561716 -1.2643474 69
-4.4502077 -3.3466241 -1.2712235 50
-4.4987917 -3.3401461 -1.2794747 56
-4.5623784 -3.3441312 -1.2920808 67
-4.6096225 -3.3354769 -1.2998736 59
-4.6767316 -3.3405132 -1.3133963 74
-4.7337332 -3.337558 -1.3239396 69
-4.7980633 -3.3390329 -1.3365456 64
-4.8722157 -3.3464563 -1.351902 92
-4.9232736 -3.3372538 -1.3606117 80
-4.9881539 -3.3367517 -1.3732177 86
-5.0402145 -3.326997 -1.3821565 101
-5.1053915 -3.3252292 -1.3947625 88
-5.174829 -3.3254168 -1.4085145 99
-5.2354169 -3.3191428 -1.4197453 74
-5.2804413 -3.3024421 -1.4266213 94
-5.3478236 -3.2991133 -1.4396858 86
-5.4286661 -3.3031769 -1.4564174 86
-5.4863887 -3.292346 -1.4667314 107
-5.5684738 -3.2953076 -1.4836923 74
-5.6415515 -3.2919879 -1.4981319 95
-5.7004538 -3.2796412 -1.5086751 114
-5.753489 -3.2633328 -1.5176139 92
-1.2035519 -0.67255783 -0.28474501 67
-1.2161807 -0.66985881 -0.28703701 165
-1.2142806 -0.65913159 -0.28543261 157
-1.2131531 -0.64891237 -0.28405741 169
-1.2110851 -0.63827783 -0.282453 159
-1.21066 -0.62859076 -0.28130701 180
-1.2092952 -0.61848962 -0.27993181 199
-1.2087215 -0.60886711 -0.27878579 200
-1.2089472 -0.59970778 -0.27786899 196
-1.2082317 -0.5901413 -0.276723 187
-1.2074444 -0.58060622 -0.27557701 179
-1.2074655 -0.57151979 -0.2746602 167
-1.2065386 -0.56204373 -0.27351418 188
-1.2037714 -0.55178887 -0.2719098 173
-1.2026983 -0.54239017 -0.27076378 189
-1.1988866 -0.5318405 -0.2689302 189
-1.1985593 -0.5229162 -0.26801339 195
-1.1963787 -0.51324797 -0.26663819 214
-1.1977119 -0.50514042 -0.26617977 211
-1.1989907 -0.4970358 -0.26572138 214
-1.2002152 -0.48893458 -0.26526299 196
-1.2013855 -0.48083708 -0.26480457 230
-1.2034075 -0.47310004 -0.26457539 231
-1.2044718 -0.46500546 -0.26411697 182
-1.2009318 -0.45518932 -0.26251256 256
-1.2027899 -0.44747227 -0.26228338 203
-1.2018559 -0.43874738 -0.26136658 228
-1.2036091 -0.4310362 -0.26113737 216
-1.2025582 -0.42235154 -0.26022056 213
-1.2032865 -0.41433045 -0.25976217 232
-1.2030396 -0.40600482 -0.25907457 225
-1.2027359 -0.39769784 -0.25838697 210
-1.2033017 -0.3897101 -0.25792858 255
-1.2010314 -0.38084686 -0.25678256 216
-1.200557 -0.37260386 -0.25609496 228
-1.1990955 -0.36409795 -0.25517815 205
-1.199441 -0.35617882 -0.25471976 248
-1.1997344 -0.34826916 -0.25426137 220
-1.2018487 -0.34090117 -0.25426137 241
-1.202042 -0.333 -0.25380296 245
-1.2021835 -0.32510936 -0.25334457 259
-1.2050968 -0.3179754 -0.25357375 217
-1.20514 -0.31008938 -0.25311536 230
-1.2051318 -0.3022148 -0.25265697 224
-1.206018 -0.29458329 -0.25242776 256
-1.205909 -0.28672683 -0.25196937 210
-1.205749 -0.2788828 -0.25151095 257
-1.206488 -0.27126539 -0.25128177 213
-1.2071788 -0.26364943 -0.25105256 248
-1.2078216 -0.25603518 -0.25082335 250
-1.2074631 -0.24822669 -0.25036496 291
-1.2060999 -0.24024178 -0.24967735 252
-1.2065955 -0.23265217 -0.24944815 230
-1.2060866 -0.2248868 -0.24898975 230
-1.205528 -0.21713644 -0.24853136 240
-1.2058787 -0.2095684 -0.24830215 223
-1.2071419 -0.20216532 -0.24830215 244
-1.2064377 -0.19444424 -0.24784374 219
-1.2066463 -0.18688872 -0.24761455 222
-1.2077703 -0.17948136 -0.24761455 259
-1.205958 -0.17165481 -0.24692695 227
-1.2040951 -0.16385725 -0.24623935 278
-1.2060431 -0.15659162 -0.24646854 258
-1.2079473 -0.14930826 -0.24669775 244
-1.2098074 -0.14200741 -0.24692695 234
-1.2125907 -0.13479722 -0.24738535 238
-1.214363 -0.12745628 -0.24761455 229
-1.2160908 -0.12009867 -0.24784374 203
-1.2168049 -0.11263461 -0.24784374 222
-1.2194126 -0.10533449 -0.24830215 204
-1.2180954 -0.097694069 -0.24784374 236
-1.2177012 -0.09014596 -0.24761455 223
-1.2182314 -0.082672589 -0.24761455 244
-1.2187158 -0.075196102 -0.24761455 247
-1.2181823 -0.067662485 -0.24738535 250
-1.2185746 -0.060186587 -0.24738535 219
-1.2179486 -0.052666053 -0.24715614 243
-1.2172761 -0.045155469 -0.24692695 257
-1.2165573 -0.037655123 -0.24669775 249
-1.2287726 0.089074701 -0.26593381 216
-1.2282029 0.096612632 -0.26593381 240
-1.2275871 0.10414693 -0.26593381 191
-1.2269249 0.1116773 -0.26593381 215
-1.2281483 0.11939309 -0.26641598 228
-1.2283579 0.12702735 -0.26665705 224
-1.2294846 0.13477534 -0.2671392 192
-1.2295984 0.14242935 -0.26738027 200
-1.2296646 0.15008983 -0.26762134 206
-1.2306455 0.15788086 -0.26810351 224
-1.2306154 0.16555929 -0.26834458 200
-1.2324591 0.17351568 -0.26906779 237
-1.2323312 0.18121672 -0.26930887 206
-1.236951 0.18966261 -0.27075532 242
-1.2367222 0.19740269 -0.27099639 218
-1.2374022 0.20530683 -0.27147853 200
-1.2380317 0.21322674 -0.27196071 224
-1.2386106 0.22116208 -0.27244285 224
-1.2372303 0.22875789 -0.27244285 240
-1.2377094 0.23671144 -0.27292499 215
-1.2371856 0.24449046 -0.27316606 217
-1.2375637 0.2524668 -0.27364823 233
-1.2378904 0.26045698 -0.27413037 245
-1.2410103 0.26908022 -0.27533576 214
-1.2421769 0.27732682 -0.27605897 238
-1.2442346 0.28581601 -0.27702329 204
-1.2462347 0.29434085 -0.27798757 206
-1.2481768 0.30290094 -0.27895188 227
-1.2481778 0.31102493 -0.27943403 180
-1.249066 0.31940159 -0.28015724 223
-1.2517754 0.3282949 -0.28136262 191
-1.2534854 0.33698067 -0.28232694 183
-1.2560713 0.34595826 -0.28353229 205
-1.258594 0.35498023 -0.28473768 175
-1.2619854 0.36431614 -0.28618413 182
-1.2643789 0.37343127 -0.28738949 204
-1.265779 0.38230798 -0.2883538 182
-1.2671176 0.39121592 -0.28931811 196
-1.2693198 0.4004474 -0.29052347 193
-1.2686857 0.40882522 -0.29100561 202
-1.2698398 0.41781855 -0.29196993 208
-1.2709311 0.42684138 -0.29293424 198
-1.2728772 0.4362087 -0.29413959 187
-1.2729244 0.44497386 -0.29486284 167
-1.2747395 0.45440924 -0.29606819 179
-1.2728392 0.4625546 -0.29630929 192
-1.2754359 0.47238296 -0.29775572 202
-1.2752365 0.48123026 -0.29847896 198
-1.2758821 0.49044186 -0.29944324 152
-1.2746557 0.49897036 -0.29992542 149
-1.2733725 0.50750226 -0.30040756 160
-1.2738307 0.51676834 -0.30137184 141
-1.3190604 0.54461426 -0.31438991 21
-1.3156939 0.5526976 -0.31438991 11
-8.5260496 3.6502583 -2.2637229 48
-8.4394274 3.6746011 -2.2463655 61
-8.4158344 3.7259221 -2.2461243 58
-8.3282137 3.7484047 -2.2285259 86
-8.2997618 3.7970121 -2.2270794 82
-8.2842274 3.8515503 -2.229249 94
-8.3244934 3.9325788 -2.2468476 49
-8.3115807 3.9890435 -2.2499816 45
-8.2930546 4.0429449 -2.2516692 35
-8.2428703 4.0812626 -2.244678 41
-8.1855927 4.1156287 -2.2357581 50
-8.1065979 4.1384115 -2.2208116 34
-8.0724363 4.1836081 -2.2184007 36
-8.0345898 4.2267337 -2.2150257 27
-8.0162086 4.2800684 -2.2171953 48
-8.002594 4.3361111 -2.2208116 40
-7.9188619 4.3537974 -2.2046595 44
-7.8597937 4.384335 -2.1954987 46
-7.9535189 4.5008454 -2.2299724 94
-7.881146 4.5239496 -2.2171953 343
-7.8532391 4.5722222 -2.2171953 327
-7.8233657 4.6193357 -2.2167132 317
-7.7948747 4.6672521 -2.2167132 279
-7.7602835 4.7114663 -2.2150257 339
-7.7320547 4.7595024 -2.2152667 303
-7.6747141 4.7893829 -2.2070701 233
-7.6476426 4.8379412 -2.2077935 251
-7.5745177 4.8570046 -2.1950164 108
-7.5136533 4.8832884 -2.1858556 87
-7.3984551 4.8732338 -2.1605427 37
-6.9285321 4.6248264 -2.0291569 62
-6.8638535 4.6427784 -2.0183084 121
-6.8080215 4.6661482 -2.0101118 125
-6.7218733 4.6679678 -1.9927545 80
-6.582787 4.631484 -1.9592451 72
-6.4744334 4.614882 -1.9348965 26
-6.4334073 4.6454296 -1.9310392 12
-6.4063487 4.6859627 -1.9315214 19
-6.2706556 4.6460142 -1.8984941 105
-6.2055516 4.6570187 -1.8871636 71
-6.1536832 4.6773853 -1.8799313 84
-6.0572004 4.6629481 -1.8587167 90
-5.9840884 4.6654105 -1.8447344 104
-5.9157453 4.6707611 -1.8321985 85
-5.8452897 4.6736317 -1.8189393 65
-0 0 -0 4
-0 0 -0 3
-0 0 -0 5
-0 0 -0 5
-0 0 -0 7
-0 0 -0 8
-0 0 -0 6
-0 0 -0 5
-0 0 -0 6
-0 0 -0 5
-0 0 -0 6
-0 0 -0 8
-0 0 -0 6
-0 0 -0 7
-0 0 -0 7
-0 0 -0 7
-0 0 -0 6
-0 0 -0 9
-0 0 -0 7
-0 0 -0 8
-0 0 -0 8
-0 0 -0 7
-0 0 -0 9
-0 0 -0 7
-2.3273723 2.5330303 -0.81437957 8
-0 0 -0 5
-0 0 -0 4
-0 0 -0 5
-0 0 -0 4
-0 0 -0 5
-2.3717096 2.7801964 -0.86765718 52
-2.3446045 2.7828183 -0.86379999 48
-2.3150749 2.782228 -0.85897845 9
-0 0 -0 5
-0 0 -0 4
-0 0 -0 4
-0 0 -0 5
-0 0 -0 4
-0 0 -0 5
-2.3451555 3.0782876 -0.92117584 19
-2.3314717 3.0996013 -0.92334551 22
-2.3210847 3.1255386 -0.92696166 24
-2.311614 3.1530302 -0.9310599 25
-2.3013244 3.1797366 -0.93491709 18
-2.2902298 3.2056451 -0.93853325 17
-2.2772262 3.2291567 -0.94142616 13
-0 0 -0 5
-0 0 -0 4
-0 0 -0 5
-0 0 -0 4
-2.3326368 3.5332196 -1.011579 13
-2.3140905 3.5523458 -1.0130254 12
-2.3053629 3.5868919 -1.0190523 30
-2.295259 3.6198244 -1.024597 14
-2.2791784 3.6437151 -1.0274899 9
-0 0 -0 5
-2.2645514 3.7211611 -1.0419544 17
-2.2536571 3.7549605 -1.0477402 25
-0 0 -0 4
-0 0 -0 4
-0 0 -0 5
-2.1876307 3.856416 -1.0612404 14
-0 0 -0 6
-0 0 -0 5
-0 0 -0 5
-0 0 -0 6
-0 0 -0 5
-0 0 -0 6
-0 0 -0 4
-0 0 -0 5
-0 0 -0 7
-0 0 -0 5
-0 0 -0 6
-0 0 -0 4
-1.7852701 3.8293293 -1.0094093 10
-1.7447538 3.803158 -0.99928415 11
-0 0 -0 5
-0 0 -0 5
-0 0 -0 5
-0 0 -0 5
-0 0 -0 4
-0 0 -0 5
-0 0 -0 6
-0 0 -0 7
-0 0 -0 4
-0 0 -0 6
-0 0 -0 5
-0 0 -0 4
-0 0 -0 4
-1.3963114 3.8949735 -0.98771256 13
-1.3665965 3.8869858 -0.98337322 19
-0 0 -0 6
-0 0 -0 7
-0 0 -0 5
-0 0 -0 4
-1.2431999 3.9159756 -0.98048031 4
-1.2223135 3.9337256 -0.98313212 7
-1.2068965 3.969939 -0.99060547 8
-1.1869359 3.9921551 -0.99446267 15
-1.1662066 4.0124111 -0.99783772 13
-1.1423596 4.0222921 -0.99856091 17
-1.1179169 4.0301609 -0.99880201 17
-1.0916469 4.0313234 -0.99735558 13
-1.0646617 4.0295005 -0.99518585 7
-1.0362887 4.0218592 -0.99156976 10
-0 0 -0 4
-0 0 -0 6
-0 0 -0 4
-0 0 -0 5
-0 0 -0 5
-0 0 -0 5
-0 0 -0 5
-0.55600411 2.6980269 -0.6441806 13
-0.54133534 2.7109056 -0.64659137 21
-0.52542657 2.717988 -0.64755565 20
-0.50962913 2.7259309 -0.64876103 13
-0.49409825 2.7356925 -0.65044856 8
-0.47813421 2.7434537 -0.65165395 7
-0 0 -0 4
-0 0 -0 4
-0 0 -0 4
-0 0 -0 4
-0 0 -0 4
-0 0 -0 5
-0 0 -0 4
-0 0 -0 5
-0 0 -0 5
-0 0 -0 4
-0 0 -0 3
-0 0 -0 4
-0 0 -0 4
-0 0 -0 4
-0 0 -0 5
-0 0 -0 5
-0 0 -0 5
-0 0 -0 4
-0 0 -0 6
-0 0 -0 4
-0 0 -0 4
-0 0 -0 5
-0 0 -0 4
-0 0 -0 6
-0 0 -0 4
-0 0 -0 5
-0 0 -0 4
-0 0 -0 5
0 0 -0 6
0 0 -0 7
0 0 -0 7
0 0 -0 5
0 0 -0 5
0 0 -0 4
0 0 -0 5
0 0 -0 6
0 0 -0 5
0 0 -0 5
0 0 -0 6
0 0 -0 5
0 0 -0 3
0 0 -0 4
0 0 -0 4
0 0 -0 5
0 0 -0 5
0 0 -0 4
0 0 -0 4
0 0 -0 4
0 0 -0 4
0 0 -0 5
0 0 -0 4
0 0 -0 6
0 0 -0 5
0 0 -0 6
1.2707459 7.6223979 -1.8794492 4
1.3201418 7.6297579 -1.8833064 15
1.3587017 7.5756621 -1.8717349 11
1.4033862 7.557641 -1.8693241 6
1.4449699 7.5241084 -1.8630561 14
1.4846829 7.4827352 -1.8548596 9
1.5290093 7.4658785 -1.8529309 17
1.5773993 7.4686999 -1.8560649 9
1.6190664 7.4399152 -1.8512434 17
1.6608645 7.4127946 -1.846904 17
1.7036996 7.3911161 -1.8440112 13
1.7414048 7.3484168 -1.8358146 12
1.7818666 7.3187346 -1.8309931 11
1.8243848 7.2982488 -1.8285824 23
1.8643062 7.2681165 -1.8237609 6
1.9081262 7.2537246 -1.8230376 14
1.9495648 7.2306361 -1.8201448 11
1.996997 7.229763 -1.8230376 10
2.0344491 7.1930938 -1.8167697 7
2.0696368 7.149713 -1.8088142 4
2.1085048 7.1201301 -1.8044748 6
2.162003 7.1395669 -1.8129125 10
2.2072055 7.1308017 -1.8141179 10
2.2476971 7.1069465 -1.811466 4
2.2939484 7.1013322 -1.8136357 8
0 0 -0 6
2.3827786 7.0781655 -1.8150822 6
2.4132326 7.0257812 -1.8051981 22
2.4598279 7.020916 -1.8078499 8
2.4979613 6.9919825 -1.8042338 12
2.533839 6.9573746 -1.7991712 7
2.5514803 6.8743711 -1.7813317 10
2.5901785 6.8495088 -1.7789209 14
2.6304126 6.828959 -1.7777156 12
2.6687193 6.8036561 -1.7753048 15
2.7050145 6.7736344 -1.7716887 10
2.7377515 6.735333 -1.7659029 10
2.7864494 6.7363424 -1.7707243 8
2.822458 6.7065959 -1.7673492 10
2.8593528 6.679338 -1.7646974 13
2.8952446 6.6501007 -1.7615635 16
2.9281342 6.6144633 -1.756742 13
2.9666727 6.5919471 -1.7555367 12
3.0018139 6.5621476 -1.7524027 21
3.0354738 6.5295253 -1.7485454 25
0 0 -0 8
3.1141124 6.4891591 -1.7478222 12
3.1445119 6.4507384 -1.7425185 18
3.1853259 6.4339318 -1.7432418 22
3.2269242 6.418601 -1.7444471 16
3.2644815 6.3952227 -1.7434828 10
3.2996404 6.3673172 -1.7413132 14
3.3390994 6.3478103 -1.7415543 21
3.3729568 6.3177857 -1.7389024 22
3.4024093 6.2799058 -1.7340809 19
3.4338627 6.2461553 -1.7304648 16
3.4565182 6.197 -1.7225094 20
3.4959116 6.1782084 -1.7232325 18
3.5187736 6.1305509 -1.7157593 20
3.5553467 6.1071677 -1.7152771 23
3.5878172 6.0768809 -1.7128663 19
3.617058 6.0414305 -1.7090092 18
3.6570821 6.0241003 -1.7104555 16
3.6888881 5.9932833 -1.7080449 14
3.7276483 5.9738288 -1.7090092 8
3.7507401 5.9295216 -1.7027411 11
3.7896721 5.91048 -1.7039466 7
3.8147585 5.8700285 -1.698884 20
3.8480346 5.8424592 -1.6976786 22
3.8875833 5.824388 -1.6993661 29
3.9101951 5.7811332 -1.6935804 22
3.9444964 5.7554312 -1.6930982 29
3.9642336 5.7088017 -1.6863481 19
4.0008631 5.6867514 -1.6870713 37
4.0204687 5.6407599 -1.6805623 19
4.0550041 5.6159844 -1.6805623 24
4.0945444 5.5980468 -1.682732 24
4.1230378 5.5650206 -1.6803212 20
4.1501145 5.5303035 -1.6774282 28
4.1792707 5.4985547 -1.6754997 21
4.1993113 5.455122 -1.669955 11
4.2446408 5.4445586 -1.6747764 15
4.2761636 5.4161267 -1.6740532 33
4.302042 5.3806915 -1.6711603 26
4.339252 5.3594728 -1.6728479 18
4.3603621 5.3184891 -1.6682675 23
4.3854733 5.2826748 -1.6653745 19
4.4146814 5.2519522 -1.6641692 18
4.4417906 5.218854 -1.6622406 19
4.4838681 5.2032628 -1.6660978 36
4.4952888 5.1522546 -1.6583834 29
4.5223193 5.1194839 -1.6566958 24
4.5555882 5.0938091 -1.6574191 28
4.5841513 5.0628834 -1.6564548 19
4.6144743 5.0339451 -1.6562136 25
4.6399927 4.9998465 -1.6542851 30
4.6639376 4.9642096 -1.6518743 29
4.6856127 4.9263587 -1.6487404 25
4.709693 4.8912244 -1.6465707 33
4.7274203 4.8497272 -1.6422313 35
4.7577705 4.8213196 -1.6424724 28
4.7927523 4.7975273 -1.6444011 21
